ply
format ascii 1.0
element vertex 1329
property float x
property float y
property float z
property uchar red
property uchar green
property uchar blue
end_header
-569.505 -83.5041 601.634 129 155 142
-444.247 -191.143 590.316 35 70 56
-644.214 -138.376 568.952 52 82 69
-552.47 -73.1939 639.501 98 64 58
-687.284 -127.966 617.428 73 100 84
-674.844 -98.5811 608.275 96 97 88
-522.359 -91.6799 631.509 168 182 176
-601.291 -90.8365 615.717 54 73 58
-457.027 -199.951 589.107 127 139 133
-555.988 -89.2811 640.936 70 102 85
-585.898 -249.701 544.511 130 155 175
-588.22 -79.8129 629.623 255 219 217
-694.764 -120.791 608.191 109 103 92
-570.898 -91.4617 636.524 98 130 119
-611.897 -102.923 599.652 125 146 131
-676.37 -67.8154 643.677 148 127 119
-763.526 -131.032 650.847 151 172 169
-613.395 -132.497 556.433 15 45 32
-531.096 -245.956 534.953 87 118 111
-534.935 -87.7338 618.554 216 216 210
-654.275 -102.211 618.121 58 61 52
-783.369 -140.203 666.392 67 48 45
-446.384 -196.365 591.742 27 59 48
-477.244 -177.836 596.815 79 125 112
-458.861 -145.446 627.72 121 170 154
-575.94 -81.9054 636.466 62 72 60
-463.629 -192.553 619.247 61 105 88
-557.355 -232.4 542.31 25 41 34
-517.771 -103.127 626.375 16 24 14
-666.685 -92.3845 602.406 128 137 127
-633.111 -87.6524 640.964 189 183 176
-663.816 -94.7535 605.729 53 46 37
-552.57 -182.816 537.494 63 89 83
-592.978 -89.3925 600.253 162 176 170
-552.667 -75.3953 633.304 255 212 209
-447.114 -188.661 592.641 218 203 200
-467.942 -227.23 530.792 79 120 112
-596.056 -75.4789 638.201 198 164 164
-640.76 -223.019 556.828 43 64 55
-706.424 -118.606 611.938 126 140 128
-676.541 -113.099 621.214 156 142 136
-521.521 -98.1416 621.067 50 74 62
-469.266 -188.38 656.803 34 64 51
-537.842 -96.0252 636.777 137 162 152
-559.351 -96.5452 615.821 77 86 76
-518.304 -112.202 569.653 61 115 98
-638.817 -109.339 615.898 59 69 57
-467.898 -73.3866 607.754 12 20 9
-717.089 -118.53 617.996 93 106 92
-704.266 -123.583 602.409 250 208 203
-583.77 -91.4875 606.239 141 165 157
-692.85 -137.889 599.745 255 218 214
-682.116 -104.989 613.831 166 134 128
-592.282 -106.519 555.718 87 117 106
-497.883 -118.88 643.586 63 88 78
-454.002 -174.108 570.52 102 153 139
-780.95 -149.259 673.899 134 73 69
-559.272 -76.6669 608.307 109 129 116
-593.965 -113.871 622.974 116 133 119
-665.998 -142.01 571.123 14 37 29
-641.626 -136.143 572.345 150 182 171
-479.582 -133.452 615.226 51 77 61
-640.763 -212.953 571.225 142 153 145
-619.817 -78.5965 633.214 68 84 73
-500.077 -86.0348 647.485 119 144 140
-699.556 -117.723 618.963 177 155 150
-622.502 -152.578 542.097 69 103 96
-693.22 -206.385 594.943 49 54 55
-547.641 -85.352 610.261 97 128 113
-558.304 -85.7494 592.972 132 146 140
-576.727 -253.969 554.792 11 20 17
-586.022 -73.8991 648.345 130 135 126
-573.676 -64.5939 644.711 148 169 160
-698.364 -128.057 595.421 119 105 93
-705.193 -134.563 600.617 18 26 16
-497.011 -88.3184 634.847 89 118 109
-629.076 -228.914 551.387 12 23 13
-698.181 -132.722 607.071 209 187 182
-653.93 -54.4454 668.263 155 160 163
-456.836 -194.007 580.873 102 148 136
-467.638 -163.466 622.332 168 184 173
-644.463 -252.14 549.067 45 59 55
-542.989 -61.1554 634.259 82 72 62
-608.977 -151.775 539.666 52 83 74
-403.62 -16.3961 547.75 61 139 116
-659.983 -100.142 618.358 63 81 68
-527.789 -156.458 561.782 19 44 34
-499.122 -101.127 631.892 42 56 45
-424.27 -63.5665 564.801 26 110 81
-458.987 -150.694 629.104 93 136 123
-699.01 -191.42 583.697 123 147 137
-624.017 -61.3143 634.23 173 148 144
-562.43 -62.6725 639.19 255 227 222
-603.127 -89.5632 607.341 81 115 98
-695.313 -111.377 621.486 162 138 132
-591.899 -121.206 568.075 131 151 138
-1103.04 -296.248 733.824 176 165 173
-662.495 -90.0603 617.716 71 83 71
-499.617 -84.4373 626.667 133 154 145
-584.269 -94.351 601.964 27 47 34
-547.896 -53.1984 636.727 125 112 104
-481.897 -141.536 634.494 49 86 76
-478.625 -199.358 648.11 211 214 205
-486.689 -179.524 602.506 0 12 3
-467.678 -183.57 640.045 27 52 42
-1120.45 -302.041 725.708 159 155 161
-532.29 -221.607 529.729 91 126 116
-1147.28 -296.082 739.157 164 157 162
-542.877 -85.5256 616.296 104 141 125
-564.789 -240.186 546.414 36 47 44
-579.724 -209.865 538.827 99 139 128
-529.751 -97.154 629.038 70 105 91
-556.734 -65.1433 638.864 255 218 218
-656.376 -96.2698 630.411 95 121 107
-593.454 -92.0821 609.467 104 129 119
-651.812 -165.035 560.803 84 112 106
-415.079 -46.1557 556.915 72 186 156
-503.55 -115.067 625.064 129 159 146
-577.878 -61.2538 649.45 255 226 225
-697.017 -91.1362 627.399 123 132 122
-585.859 -92.7295 587.68 93 135 124
-580.542 -254.078 551.473 126 141 167
-593 -59.9336 615.997 78 82 77
-1075.88 -286.614 733.83 178 172 177
-1123.22 -287.896 742.129 168 159 162
-576.209 -222.771 538.245 91 125 118
-572.086 -182.092 538.791 33 43 37
-563.076 -88.2882 631.866 217 179 175
-1005.9 -261.917 744.804 185 178 185
-644.337 -165.708 555.377 60 76 69
-632.058 -117.075 619.809 102 124 112
-446.24 -205.129 586.383 36 95 75
-639.915 -81.8705 633.884 146 128 117
-480.346 -186.14 553.935 9 46 36
-655.435 -159.019 569.388 56 84 71
-463.221 -164.018 622.621 58 84 71
-1016.17 -280.263 734.621 155 149 154
-460.024 -166.315 628.35 54 79 65
-624.172 -137.93 591.894 83 93 81
-595.471 -64.7574 617.163 120 105 113
-666.223 -94.6767 629.468 94 108 96
-472.693 -156.328 592.658 48 80 69
-680.18 -125.775 615.662 95 126 111
-395.323 -285.088 615.975 56 170 140
-1123.3 -293.887 728.724 166 157 160
-524.275 -120.2 566.918 66 86 74
-636.511 -129.722 581.672 52 91 76
-639.078 -87.0098 640.904 93 113 100
-513.335 -125.845 567.9 124 154 141
-650.694 -103.77 602.583 45 55 43
-1082.82 -281.064 737.168 70 58 58
-473.33 -229.147 525.02 85 129 123
-1044.78 -289.943 729.768 169 166 168
-1050.37 -262.069 750.53 151 146 155
-534.847 -89.7284 612.792 135 162 158
-664.55 -132.795 573.639 179 205 199
-514.951 -161.444 563.182 9 24 16
-680.522 -110.855 621.269 89 76 68
-1026.68 -269.222 739.14 174 167 174
-1097.86 -278.711 744.783 154 148 149
-606.969 -183.963 617.636 181 193 187
-476.293 -174.365 576.182 9 45 33
-565.094 -73.3299 644.702 142 128 122
-612.556 -221.92 538.179 56 89 75
-463.106 -227.576 529.458 104 138 132
-546.784 -102.353 580.973 43 68 58
-1073.03 -254.24 755.07 154 146 156
-1078.06 -271.72 750.634 164 156 167
-481.571 -177.659 559.58 54 108 91
-1110.36 -289.846 740.951 177 171 176
-1011.4 -254.692 747.476 83 77 82
-988.758 -269.859 734.206 156 149 156
-632.99 -74.8104 630.11 128 116 106
-599.783 -142.54 558.474 78 106 93
-624.548 -260.121 539.175 201 189 185
-420.234 -144.796 596.433 76 160 135
-465.662 -145.403 631.968 154 197 184
-497.987 -175.655 575.896 22 28 23
-693.83 -160.597 590.602 89 101 95
-516.668 -112.806 574.953 48 55 48
-476.962 -134.965 628.336 112 160 148
-683.083 -172.822 574.065 64 115 101
-663.214 -95.9613 632.391 114 134 121
-458.558 -173.863 637.879 26 78 60
-500.652 -119.3 633.497 101 148 132
-1024.05 -252.348 749.968 182 174 184
-618.692 -257.592 550.579 24 42 35
-1153.75 -282.971 753.06 145 134 142
-1014.02 -218.128 764.062 87 83 95
-580.909 -130.623 553.104 83 108 98
-585.213 -63.8309 650.563 166 158 158
-437.41 -217.539 629.217 23 32 36
-1123.36 -256.981 765.486 130 126 132
-1127.53 -273.496 754.422 162 155 162
-471.088 -183.564 559.892 74 129 114
-518.264 -161.962 561.625 10 21 13
-568.934 -193.768 538.657 46 70 60
-721.642 -131.844 614.418 77 79 67
-1064.03 -273.611 746.805 121 113 120
-644.442 -101.11 601.271 57 90 76
-505.423 -178.382 567.992 89 116 106
-310.228 -124.975 616.873 98 180 157
-603.94 -98.0449 600.925 38 52 40
-622.233 -109.671 582.673 134 161 152
-637.459 -141.517 562.715 123 162 154
-963.748 -261.082 735.24 177 168 181
-500.078 -90.8501 654.482 42 36 29
-451.71 -226.729 529.356 50 101 93
-575.687 -256.474 548.883 23 32 45
-462.002 -228.758 521.571 91 133 126
-504.657 -177.227 591.023 19 35 24
-474.276 -158.213 588.549 89 127 115
-557.279 -184.138 536.921 133 174 166
-1148.83 -287.676 741.334 157 147 153
-588.539 -130.815 567.126 29 46 37
-514.996 -112.577 630.932 144 164 152
-520.318 -106.493 598.481 61 96 82
-643.164 -71.3391 626.772 117 94 86
-596.14 -135.338 558.865 74 117 104
-451.442 -203.803 587.768 214 196 189
-551.041 -90.9529 611.175 167 193 180
-605.746 -112.664 622.838 85 119 108
-596.466 -103.551 560.76 50 62 50
-1037.85 -264.534 747.23 98 91 96
-429.956 -40.9513 563.635 93 229 195
-529.942 -90.6314 679.614 150 155 146
-601.221 -56.7258 619.676 99 106 101
-583.707 -192.604 537.594 46 62 55
-1096.73 -247.361 765.622 134 127 140
-1097.19 -262.912 752.227 161 151 157
-570.162 -110.999 583.591 96 126 115
-617.65 -121.326 570.59 76 123 107
-373.452 -66.9261 548.605 42 137 110
-507.131 -156.029 563.579 72 121 107
-619.563 -135.465 624.581 40 56 45
-579.822 -86.0533 604.802 74 109 99
-996.069 -212.361 770.897 136 129 144
-508.782 -151.868 632.724 51 67 56
-440.226 -47.1838 575.108 94 189 162
-676.968 -199.716 584.234 149 174 164
-533.349 -247.808 521.449 42 63 54
-999.695 -242.975 753.605 155 147 157
-435.547 -234.252 537.177 93 132 130
-588.533 -100.025 615.747 83 113 102
-1164.21 -270.758 754.273 126 120 131
-477.102 -190.143 555.034 58 91 84
-504.238 -114.377 639.811 32 66 49
-1135.26 -283.189 752.353 144 138 143
-438.408 -56.1162 576.385 48 118 95
-501.036 -162.98 564.005 110 140 129
-519.801 -110.81 615.176 61 94 80
-697.511 -108.909 606.766 92 121 106
-611.488 -140.614 545.166 99 148 134
-353.047 -135.809 574.583 55 146 121
-1143.18 -263.331 759.596 121 114 119
-1052.42 -277.082 738.361 173 166 173
-702.544 -192.993 582.356 88 113 103
-1065.74 -236.713 763.118 99 90 100
-1045.76 -229.633 768.228 138 133 142
-697.68 -99.0363 624.407 255 233 230
-635.916 -133.948 581.887 119 154 140
-666.635 -137.636 572.023 92 115 107
-641.88 -169.175 550.663 135 162 153
-499.793 -140.884 580.311 35 59 47
-1155.55 -275.019 753.985 88 77 80
-1000.95 -229.336 762.102 135 127 138
-606.321 -162.557 566.832 47 62 54
-1128.02 -265.174 755.953 145 141 146
-535.075 -156.168 578.978 63 100 90
-659.612 -100.532 627.798 79 123 106
-723.807 -115.649 623.113 129 150 142
-1058.82 -239.618 761.926 84 72 72
-1055.36 -248.087 763.374 137 129 139
-515.461 -102.644 598.745 108 154 141
-532.058 -89.3629 602.622 99 127 121
-687.793 -212.115 591.773 116 150 143
-538.49 -69.3439 629.2 154 164 158
-1079.73 -248.341 758.326 56 45 48
-451.209 -224.743 558.285 82 125 112
-505.075 -79.8587 653.392 116 136 131
-628.797 -142.908 552.164 67 107 96
-432.069 -54.3921 573.798 117 219 191
-487.705 -119.675 643.799 151 145 140
-478.037 -180.024 554.99 70 132 116
-547.472 -77.5238 631.975 89 97 87
-695.28 -176.218 575.36 44 48 43
-632.61 -253.354 542.292 45 59 53
-701.893 -140.587 604.007 85 115 102
-469.013 -171.468 589.897 23 34 26
-619.933 -166.972 541.441 128 155 151
-593.362 -68.0661 655.243 247 215 216
-1106.87 -273.349 751.296 131 122 125
-545.41 -112.954 566.77 149 183 172
-1023.83 -237.009 759.18 129 120 130
-477.547 -167.665 588.827 73 113 101
-468.353 -197.664 636.306 224 215 205
-470.108 -182.644 586.041 95 146 132
-1009.12 -200.724 780.7 103 95 106
-412.086 -50.6002 558.093 56 147 121
-576.69 -198.767 590.469 23 33 27
-1054.92 -254.871 752.44 85 74 77
-537.082 -75.1061 630.576 133 166 159
-1035.01 -232.956 765.852 56 52 51
-620.905 -139.918 548.391 45 101 82
-479.627 -189.157 619.902 185 198 190
-981.812 -173.735 796.072 65 51 53
-604.983 -77.4728 622.15 75 108 94
-406.779 -12.7977 550.246 227 248 233
-595.583 -56.5319 618.979 128 151 146
-463.047 -222.415 538.43 41 90 76
-567.032 -204.614 539.596 118 146 140
-998.17 -265.271 741.717 169 166 181
-516.539 -136.248 626.549 72 86 75
-600.716 -164.14 563.595 38 46 39
-573.315 -136.358 557.215 57 85 72
-482.709 -159.902 587.163 84 109 99
-558.76 -114.136 567.087 123 142 133
-893.42 -164.333 763.023 201 190 186
-619.692 -231.282 536.659 104 147 134
-691.038 -101.634 621.278 248 222 216
-687.464 -90.2531 628.643 152 167 163
-1083.19 -264.753 754.132 127 116 124
-441.235 -211.469 570.616 31 78 69
-1008.55 -238.191 759.002 111 100 108
-428.389 -221.214 579.834 4 58 59
-1052.94 -222.769 772.943 82 73 86
-472.97 -115.024 621.081 130 173 160
-1107.12 -257.725 758.924 66 55 57
-516.324 -148.751 569.698 31 44 36
-514.373 -130.569 624.468 81 103 91
-577.687 -137.373 553.486 78 117 102
-600.62 -81.2394 620.953 50 83 68
-521.535 -96.8658 606.812 99 135 123
-441.358 -53.0467 578.655 49 127 103
-276.037 -96.1823 553.036 96 169 159
-1021.62 -272.784 739.945 170 161 171
-1035.45 -210.107 780.097 107 97 109
-536.933 -87.1257 601.152 140 171 162
-509.513 -105.523 626.245 29 45 34
-542.804 -188.952 547.642 4 19 11
-1032.19 -246.809 756.817 143 131 137
-460.568 -229.354 526.021 19 21 22
-567.675 -179.512 542.728 109 151 140
-1005.29 -222.163 764.504 144 138 149
-972.823 -256.312 742.046 169 164 166
-489.249 -188.085 546.402 62 92 79
-726.161 -134.593 612.034 108 125 114
-366.234 -65.1001 542.531 45 142 116
-548.288 -109.857 566.719 112 155 140
-475.931 -185.996 557.11 1 38 30
-491.352 -155.324 590.356 72 108 94
-629.537 -257.963 541.234 90 121 114
-524.163 -164.79 560.115 112 142 131
-589.81 -86.7122 584.841 53 88 74
-623.367 -257.194 542.911 73 93 88
-656.936 -148.028 564.725 154 185 178
-591.227 -165.662 563.07 74 101 91
-332.905 -133.731 575.884 38 77 75
-683.309 -160.803 583.237 73 94 86
-410.926 -55.2688 558.751 59 131 108
-313.732 -113.171 557 66 131 122
-464.141 -217.123 539.873 55 110 95
-424.571 -92.2503 577.292 18 94 70
-598.474 -110.781 571.162 75 118 103
-683.914 -192.281 583.988 21 34 26
-590.772 -56.0408 623.443 119 104 108
-565.683 -214.085 539.188 94 122 116
-532.958 -149.039 581.193 71 101 88
-558.828 -109.425 572.779 104 148 135
-612.944 -166.711 538.442 111 142 135
-516.524 -98.5601 610.551 107 132 122
-577.945 -253.792 561.177 123 144 159
-439.468 -232.974 546.943 0 22 19
-728.887 -122.011 623.77 181 165 159
-509.873 -158.428 562.149 27 59 48
-685.095 -84.0658 630.528 121 154 147
-595.136 -105.302 618.163 36 58 46
-623.473 -48.4467 624.627 167 139 139
-1050.35 -260.402 744.593 91 79 79
-435.618 -40.8277 566.307 76 154 130
-447.983 -210.289 574.127 74 136 118
-477.105 -212.621 554.221 40 72 61
-462.864 -78.0473 606.104 83 121 103
-605.003 -66.487 623.024 102 107 98
-639.732 -143.974 558.738 96 136 131
-689.048 -85.2969 629.231 255 232 228
-560.442 -200.828 540.141 38 49 46
-599.279 -117.408 578.657 69 87 74
-1014.29 -278.726 727.346 121 109 107
-1076.19 -232.282 770.677 110 106 117
-666.748 -120.915 607.65 44 67 53
-406.621 -177.297 594.446 113 191 168
-654.926 -153.011 565.177 92 126 119
-681.437 -78.9598 636.439 255 219 215
-512.11 -109.153 583.986 47 68 59
-587.998 -245.071 553.702 56 79 75
-1054.81 -280.514 735.362 47 33 34
-509.889 -93.8983 620.726 70 109 94
-475.423 -177.495 566.626 13 47 36
-667.016 -229.29 552.978 41 71 60
-604.263 -187.266 618.798 87 103 96
-446.621 -214.559 564.206 0 10 3
-972.975 -139.858 816.475 191 178 176
-456.342 -209.813 590.658 56 103 87
-689.412 -193.795 583.96 119 132 124
-627.556 -121.571 579.873 51 59 52
-447.541 -53.8163 580.22 67 131 109
-663.882 -230.45 555.182 24 49 39
-483.087 -128.824 601.082 40 66 50
-503.867 -87.6076 625.875 106 136 123
-533.505 -94.858 604.981 83 108 98
-372.422 -49.3849 550.532 74 162 138
-606.302 -158.549 538.998 53 87 76
-436.581 -210.927 570.972 73 122 108
-452.781 -116.038 600.775 134 168 157
-577.771 -187.35 535.805 104 147 138
-351.246 -150.224 589.138 18 69 65
-498.209 -94.1886 635.757 40 71 56
-343.928 -153.411 568.295 38 120 121
-635.959 -68.9068 627.781 255 221 217
-653.752 -120.914 598.697 127 161 150
-689.504 -153.479 589.076 118 139 131
-422.714 -141.321 595.606 33 100 79
-504.252 -92.6538 619.951 101 123 111
-427.738 -48.0541 568.819 41 164 132
-459.952 -136.112 620.993 100 149 133
-356.451 -148.709 578.039 56 134 103
-531.856 -95.6018 597.53 38 68 55
-610.388 -223.316 533.728 13 41 28
-659.674 -205.41 576.618 50 77 68
-512.028 -120.209 584.855 72 91 82
-479.945 -180.808 551.851 43 89 76
-689.22 -158.954 590.723 103 124 121
-544.492 -81.0427 628.29 134 153 144
-1103.33 -241.362 770.393 85 77 87
-1159.6 -205.799 782.205 191 98 89
-675.615 -179.833 576.399 29 26 21
-935.393 -343.177 644.433 169 166 161
-528.778 -162.049 558.318 34 59 49
-484.183 -128.768 610.601 53 84 69
-505.577 -146.673 571.856 37 54 43
-993.531 -271.375 732.68 127 115 115
-430.741 -205.921 587.196 13 25 27
-616.244 -137.898 549.043 59 98 82
-1058.29 -218.144 775.488 102 94 101
-346.974 -151.128 570.024 38 115 118
-711.923 -139.791 601.841 36 53 44
-464.614 -182.911 571.366 74 123 107
-664.886 -98.9887 604.307 170 168 160
-332.909 -140.911 591.135 10 61 64
-566.095 -182.559 536.664 130 163 156
-525.976 -167.271 556.55 51 81 68
-353.371 -44.9365 536.816 37 118 93
-928.168 -339.784 644.355 142 139 155
-500.73 -123.618 629.349 56 86 75
-586.213 -205.751 546.074 112 136 128
-552.313 -189.988 536.605 58 87 84
-528.389 -107.988 597.621 67 93 80
-650.052 -121.231 601.562 48 65 54
-679.043 -87.4131 624.718 82 108 95
-609.83 -141.533 550.137 48 94 81
-357.664 -67.7401 543.941 50 137 111
-705.031 -215.485 602.633 104 115 107
-528.342 -237.547 524.762 43 76 69
-644.662 -66.5803 631.502 255 224 219
-581.105 -76.4878 636.066 249 220 213
-706.109 -147.462 594.922 77 101 89
-541.301 -153.889 583.195 36 53 44
-551.908 -158.154 569.244 21 38 29
-699.487 -123.964 624.421 255 222 220
-518.805 -154.202 567.263 76 110 99
-417.991 -152.614 598.559 75 157 134
-498.672 -154.736 563.035 122 158 144
-533.541 -163.528 554.991 35 52 43
-660.731 -191.454 572.722 81 113 102
-1148.42 -182.827 961.35 73 63 63
-560.452 -134.974 570.532 79 105 92
-586.61 -104.408 582.476 80 104 92
-708.358 -198.176 583.939 186 182 177
-510.908 -99.486 624.134 88 127 112
-477.997 -118.313 621.691 138 168 157
-468.47 -181.499 595.633 98 125 115
-659.686 -108.92 606.936 100 130 117
-628.22 -109.298 602.656 64 81 70
-369.693 -31.104 566.818 55 119 97
-654.647 -163.029 566.385 97 126 117
-495.355 -120.308 632.102 85 110 100
-466.881 -175.65 582.397 21 32 24
-695.222 -151.708 594.443 77 94 85
-476.793 -222.922 528.822 92 145 132
-483.776 -154.021 593.794 85 118 104
-594.887 -99.6594 591.236 88 109 94
-360.643 -47.4237 543.225 68 162 137
-571.814 -233.582 548.969 94 111 132
-617.42 -129.519 565.26 97 139 128
-624.186 -105.865 590.045 89 111 99
-577.865 -111.259 587.489 44 69 59
-443.32 -34.3579 579.299 71 198 167
-565.495 -216 535.657 81 111 100
-507.824 -125.489 595.365 108 125 114
-643.709 -149.678 561.812 102 144 137
-638.344 -221.264 560.903 22 42 30
-498.822 -100.558 638.313 138 141 132
-1152.02 -258.7 766.018 102 95 102
-490.843 -218.884 537.406 47 90 75
-1132.59 -251.878 772.89 122 115 128
-682.66 -72.9185 632.816 166 179 171
-1172.57 -265.405 760.636 93 79 90
-645.656 -221.382 558.521 12 27 23
-425.296 -210.476 619.756 51 105 98
-952.399 -249.612 747.261 117 111 128
-637.965 -215.982 559.606 39 58 49
-529.33 -242.91 519.645 67 117 107
-516.169 -118.349 569.003 96 141 125
-571.033 -134.438 561.042 67 87 74
-375.694 -48.0815 548.911 87 171 147
-582.771 -126.093 566.226 69 94 84
-603.978 -60.2651 618.204 109 122 114
-697.656 -166.396 582.191 52 80 74
-508.021 -109.918 626.917 20 38 25
-689.579 -178.182 573.179 99 126 116
-469.775 -166.801 590.828 56 92 80
-524.934 -103.551 602.598 128 165 155
-314.684 -124.256 568.685 2 52 52
-470.044 -213.573 542.856 48 87 72
-502.228 -158.661 563.207 14 35 26
-673.264 -181.675 579.29 66 102 88
-685.222 -171.492 580.547 66 111 95
-657.908 -117.336 607.836 74 86 74
-539.41 -88.7165 652.132 230 198 193
-637.839 -254.024 541.665 178 166 162
-280.613 -113.742 577.257 39 103 103
-506.769 -128.322 628.086 29 45 34
-612.962 -97.8212 608.113 66 84 71
-691.678 -73.578 631.665 171 168 163
-534.895 -92.6246 599.575 30 62 51
-492.758 -156.652 574.695 74 106 95
-599.211 -104.212 557.634 77 104 94
-495.061 -124.536 626.03 75 112 96
-694.401 -196.276 581.891 65 95 84
-677.124 -178.549 581.463 30 61 52
-539.157 -104.294 574.737 77 116 101
-562.495 -188.596 538.337 68 115 107
-639.484 -121.349 590.632 80 103 89
-442.166 -229.75 542.056 83 120 112
-313.704 -118.921 565.227 112 193 184
-482.774 -183.801 549.687 39 84 68
-649.457 -219.926 557.277 38 59 51
-593.593 -63.2056 634.142 249 194 203
-613.543 -218.183 543.75 53 80 70
-721.652 -137.245 601.447 45 62 53
-654.156 -192.763 566.982 43 75 64
-453.304 -215.865 568.707 55 108 94
-673.616 -68.2967 648.039 255 219 213
-1116.7 -237.666 776.126 88 75 83
-520.977 -149.772 582.357 80 112 101
-544.26 -124.148 574.712 64 83 74
-1003.58 -204.201 781.209 108 93 101
-665.829 -208.532 578.267 49 72 67
-472.653 -194.036 551.636 24 55 46
-661.133 -216.977 557.63 34 58 50
-678.457 -91.3692 619.679 149 160 152
-686.459 -79.9375 628.884 157 148 144
-545.039 -100.921 592.399 61 80 71
-588.342 -209.938 545.531 85 102 98
-352.039 -28.6104 549.568 64 131 116
-983.388 -216.589 777.23 101 86 84
-604.007 -102.381 568.456 59 79 67
-489.534 -204.444 546.334 63 94 85
-617.95 -134.711 551.714 41 94 80
-610.517 -74.7865 627.204 32 60 47
-516.496 -109.922 620.852 51 73 61
-946.126 -254.548 738.61 128 114 125
-406.333 -10.6216 554.583 99 168 141
-385.091 -33.5537 593.515 73 182 160
-645.1 -208.639 559.88 35 74 58
-350.856 -149.038 574.192 8 59 62
-686.576 -229.336 552.466 111 143 132
-519.03 -99.3262 599.457 120 143 135
-544.706 -101.802 586.348 114 141 131
-280.935 -100.595 603.285 66 151 129
-617.428 -126.604 568.981 73 114 99
-509.75 -89.6062 625.442 134 168 158
-566.518 -140.027 554.266 32 47 39
-549.313 -145.961 562.93 99 114 106
-421.14 2.11259 561.138 183 181 173
-660.831 -113.911 614.694 72 91 82
-459.035 -194.317 564.523 87 135 123
-399.173 -18.8104 545.744 40 133 106
-1090.11 -228.835 778.219 92 82 94
-1004.65 -244.529 752.142 109 91 92
-359.559 -139.239 571.606 83 177 153
-632.89 -62.3251 622.517 255 224 221
-462.477 -224.638 548.91 34 70 58
-488.984 -197.404 554.851 47 72 62
-595.451 -146.426 556.185 32 49 40
-386.267 -127.257 575.318 81 177 153
-1144.48 -247.487 775.49 96 88 95
-531.877 -154.057 568.593 54 86 75
-439.261 -144.527 609.868 49 111 89
-406.29 -186.084 599.457 39 118 99
-740.303 -131.451 637.681 120 91 86
-435.756 -51.2087 575.816 87 193 164
-487.557 -185.176 550.507 26 75 59
-547.21 -124.112 569.749 125 144 135
-602.971 -152.356 549.007 42 57 49
-566.544 -109.359 584.494 57 84 74
-380.421 -115.148 566.237 72 167 140
-662.971 -210.28 572.616 27 55 42
-498.388 -141.537 572.079 80 100 88
-493.665 -122.241 660.815 101 114 106
-694.244 -162.039 586.297 91 125 118
-558.811 -101.546 592.688 50 80 67
-681.61 -214.291 589.707 96 123 114
-614.178 -160.386 542.533 65 108 99
-530.144 -164.995 556.034 99 133 122
-506.51 -153.736 567.721 42 83 68
-410.152 -175.042 596.633 98 173 151
-419.015 -123.201 582.942 75 152 131
-1191.83 -264.205 766.459 91 82 92
-1174.46 -258.177 776.124 101 91 97
-468.987 -178.5 634.252 27 60 46
-657.865 -215.801 560.066 101 126 116
-609.626 -192.259 545.525 96 113 104
-976.048 -227.906 771.963 107 98 111
-655.941 -253.63 555.435 84 103 94
-624.031 -74.1529 630.523 74 120 101
-569.768 -144.841 553.214 92 111 102
-450.251 -39.8385 573.007 135 210 194
-414.755 -143.552 596.56 15 93 69
-875.723 -298.852 697.631 42 30 28
-467.195 -228.085 525.85 15 13 13
-676.875 -62.9449 713.893 114 57 56
-636.531 -258.96 543.649 184 173 169
-580.308 -130.1 586.202 122 142 129
-320.981 -0.105692 570.585 13 100 67
-963.883 -236.192 759.547 172 170 189
-586.368 -133.336 584.135 53 59 48
-625.433 -230.664 543.268 36 57 48
-527.776 -230.076 521.699 84 128 115
-462.752 -197.355 596.255 34 61 51
-467.05 -197.735 566.137 65 108 95
-495.314 -229.986 538.627 60 96 84
-279.489 -11.2605 545.533 40 125 103
-570.932 -80.7628 610.163 139 159 154
-722.121 -149.552 604.748 39 50 42
-348.13 -135.953 573.466 106 186 163
-421.043 -149.606 597.411 31 111 88
-504.338 -98.9795 631.239 31 67 53
-479.943 -196.975 554.409 49 76 67
-391.143 -23.1834 548.045 61 204 171
-1082 -236.897 763.915 76 58 59
-479.992 -210.237 552.208 34 58 48
-478.126 -143.042 622.6 22 48 34
-497.086 -121.821 652.785 188 180 173
-389.174 -110.06 569.424 81 183 155
-397.487 31.7894 552.536 242 252 240
-603.939 -255.994 546.212 137 153 159
-677.529 -181.419 573.673 63 84 75
-460.891 -215.223 540.768 23 56 42
-513.892 -116.884 580.915 102 144 133
-650.012 -141.104 587.87 129 153 143
-580.306 -134.78 551.788 105 143 131
-592.052 -192.395 546.415 63 87 77
-607.363 -119.055 601.336 31 56 46
-406.803 -192.669 603.113 35 100 98
-362.074 -41.5099 542.65 61 149 125
-1026.29 -214.18 768.882 76 64 60
-311.795 8.44838 547.176 43 105 81
-524.034 -117.495 571.405 24 33 23
-478.976 -179.511 624.342 12 27 19
-639.972 -224.548 551.729 20 39 30
-574.569 -219.257 540.425 40 57 46
-521.344 -168.906 558.92 7 18 10
-743.319 -123.329 635.097 151 117 118
-427.195 -197.428 615.76 78 151 129
-507.62 -99.9256 629.387 37 54 45
-971.412 -194.029 793.318 75 67 67
-511.683 -129.928 563.91 37 51 40
-599.61 -191.483 552.146 65 90 80
-499.236 -89.6237 623.815 39 76 60
-554.8 -202.37 538.698 71 100 91
-519.237 -177.48 561.276 70 94 84
-464.283 -114.894 598.664 74 129 110
-498.579 -151.262 568.496 24 37 29
-607.578 -115.727 563.943 72 97 87
-691.535 -227.649 558.641 149 170 162
-594.325 -107.355 552.96 33 68 58
-1134.96 -197.052 797.84 199 107 102
-546.576 -104.297 563.747 69 118 102
-661.962 -212.894 567.916 118 148 143
-504.453 -109.484 629.994 70 88 75
-595.086 -117.825 566.076 50 78 65
-692.765 -169.552 579.11 112 156 143
-401.268 34.9327 551.392 213 219 202
-502.952 -137.692 581.211 41 78 62
-495.286 -182.546 560.578 88 130 113
-443.882 -230.761 537.185 0 14 11
-320.297 -128.142 574.488 48 94 95
-502.692 -170.852 585.9 27 49 37
-506.076 -118.612 624.748 29 70 55
-512.095 -120.85 613.165 51 75 63
-519.557 -119.352 567.195 51 68 57
-602.567 -153.528 542.553 113 141 135
-1069.84 -237.963 760.781 67 54 56
-613.36 -215.265 562.021 23 30 25
-535.01 -134.222 572.122 35 46 38
-629.782 -241.754 540.909 84 111 102
-639.723 -156.37 555.456 117 142 138
-612.52 -246.813 548.032 40 74 63
-254.805 -85.3922 569.17 56 137 122
-661.148 -213.174 562.396 69 94 84
-533.371 -128.197 569.619 105 130 120
-485.561 -199.783 556.166 59 95 83
-478.712 -162.359 584.206 37 69 58
-679.007 -226.687 554.005 74 112 100
-417.002 -183.386 603.791 102 182 159
-1003.17 -199.35 799.753 79 69 82
-528.276 -112.011 592.427 97 114 103
-671.539 -70.5973 631.79 122 132 119
-505.987 -137.099 578.846 46 81 67
-681.648 -231.025 552.824 126 156 145
-1045.71 -284.764 733.199 130 119 121
-610.89 -141.796 559.882 117 143 130
-939.859 -331.292 669.694 122 109 163
-514.299 -140.107 627.963 34 52 39
-524.084 -140.062 577.975 104 121 112
-422.896 -68.7628 566.153 66 145 118
-647.877 -234.44 558.919 61 78 67
-460.33 -222.483 552.871 29 59 46
-756.813 -189.522 635.514 131 132 130
-393.747 -65.9591 555.907 26 110 85
-507.96 -130.903 575.001 42 56 45
-912.938 -335.257 638.248 94 81 113
-539.993 -141.789 580.359 89 106 97
-731.339 -113.714 625.939 233 206 202
-365.603 -183.365 579.517 98 138 156
-452.976 -162.566 628.352 47 96 74
-509.806 -116.257 594.588 57 79 67
-1006.63 -205.551 774.951 72 61 64
-715.285 -139.734 598.302 117 128 118
-552.233 -191.462 542.611 60 84 74
-457.247 -210.538 573.64 32 75 64
-593.436 -113.183 605.919 59 82 68
-614.179 -137.324 577.964 35 43 36
-965.986 -231.093 759.505 107 100 103
-680.844 -213.34 576.086 107 151 138
-509.513 -124.094 590.767 83 111 98
-616.939 -145.565 548.182 101 137 125
-474.029 -177.334 582.644 21 34 26
-431.985 -209.651 627.303 53 132 113
-469.243 -143.377 617.722 34 66 55
-617.554 -245.091 567.778 144 156 150
-980.321 -221.261 773.976 93 85 86
-650.526 -113.064 614.164 41 59 46
-593.966 -133.073 586.906 49 65 54
-512.263 -115.532 612.345 26 51 37
-668.072 -74.4998 635.845 100 104 92
-681.773 -85.8634 632.076 220 185 181
-604.956 -134.571 563.18 44 74 61
-456.476 -218.202 567.747 42 85 70
-362.119 -72.2606 546.926 131 221 192
-502.625 -187.253 554.339 99 141 124
-642.903 -235.885 558.564 42 57 49
-672.146 -79.8538 637.604 255 226 221
-282.508 -124.817 606.523 26 95 114
-519.034 -167.68 561.303 0 10 4
-562.187 -105.739 584.311 129 168 160
-397.994 -272.598 614.197 41 226 186
-669.572 -213.839 556.717 60 91 82
-352.861 -40.0404 531.75 64 151 125
-921.228 -241.84 755.032 168 156 156
-685.472 -94.6917 619.039 128 139 129
-423.332 -97.4128 576.641 65 149 124
-570.584 -157.907 556.893 105 124 115
-256.901 -77.6833 606.904 187 182 179
-482.191 -215.1 546.105 30 64 53
-584.574 -104.004 585.658 111 138 128
-432.037 -214.233 571.28 64 122 117
-560.596 -215.307 537.368 0 10 7
-959.111 -244.294 751.539 124 110 116
-556.651 -95.0532 593.508 72 94 82
-397.512 -34.724 562.392 36 99 73
-549.724 -175.124 561.785 96 112 105
-526.841 -93.8157 608.64 118 159 144
-694.5 -75.8148 629.08 255 217 212
-1058.6 -229.072 765.792 85 73 73
-518.641 -234.227 523.679 63 100 90
-645.617 -210.577 572.12 31 52 43
-390.748 -277.188 612.114 30 152 122
-314.949 15.7223 560.605 53 140 106
-554.996 -194.621 537.427 65 93 87
-604.042 -193.465 551.206 21 40 31
-621.999 -174.401 545.562 48 75 65
-512.302 -121.312 596.294 62 79 68
-1004.1 -151.903 815.785 131 116 113
-384.161 -183.048 591.07 80 114 144
-665.162 -223.39 557.263 31 75 62
-428.126 -214.528 586.331 74 136 124
-455.411 -37.1839 576.811 142 200 182
-583.257 -98.8128 585.129 137 171 160
-340.601 -26.8513 533.564 130 219 193
-511.094 -154.376 562.563 25 77 60
-331.639 -127.935 558.86 71 144 128
-466.792 -156.702 619.883 33 54 45
-512.743 -114.022 603.964 57 71 59
-875.87 -299.519 704.174 126 114 114
-610.024 -162.8 539.176 120 157 149
-393.178 -190.168 593.904 22 84 100
-435.852 -209.771 586.997 45 110 95
-503.246 -137.756 606.072 63 87 75
-495.815 -126.776 577.083 31 51 39
-439.321 -232.922 540.284 2 17 19
-984.185 -129.977 822.008 67 45 47
-707.945 -151.52 593.193 166 185 182
-323.782 -114.907 557.13 9 92 70
-605.504 -190.01 552.601 21 35 29
-355.342 -3.36123 534.1 100 207 181
-430.509 -113.075 596.502 69 150 125
-631.533 -203.944 564.756 44 59 51
-554.941 -180.09 548.4 39 59 47
-991.973 -203.473 787.547 68 53 57
-655.539 -199.875 574.213 2 30 17
-534.388 -242.337 520.259 37 80 67
-644.095 -177.613 557.51 17 38 29
-567.073 -223.537 539.134 11 21 15
-484.73 -207.267 551.095 81 105 97
-331.996 -138.499 594.429 13 49 43
-404.141 -196.869 601.901 48 119 123
-689.35 -200.738 594.885 51 78 68
-261.927 -92.314 577.07 54 131 117
-708.061 -111.478 612 255 217 219
-452.987 -221.687 567.11 61 98 94
-253.375 -89.006 568.928 77 156 142
-356.983 -31.8107 552.209 67 150 128
-624.571 -49.7787 649.103 220 136 140
-453.355 -222.653 561.956 21 59 47
-642.855 -212.075 555.299 99 138 123
-489.784 -127.224 619.779 61 98 82
-535.514 -118.826 586.102 24 33 23
-491.364 -176.087 569.497 59 79 67
-552.227 -116.822 564.49 53 74 65
-1086.35 -245.079 766.586 41 30 33
-537.856 -185.997 557.195 94 121 111
-342.257 -26.1097 528.696 55 141 117
-546.007 -96.2713 592.97 106 138 127
-561.806 -83.0474 606.069 83 126 115
-898.107 -282.16 727.857 186 174 172
-597.647 -205.874 550.583 63 84 76
-398.052 -263.984 618.18 34 139 120
-544.252 -167.379 557.699 21 27 22
-514.467 -235.75 523.313 33 51 44
-883.114 -180.596 763.049 151 130 128
-334.011 -35.3522 588.791 47 142 122
-264.367 2.8455 556.485 58 129 109
-577.765 -141.295 551.756 65 104 89
-522.47 -112.08 589.896 44 63 54
-1081.59 -269.609 746.171 86 74 68
-428.894 -216.327 581.625 46 106 98
-298.839 -192.879 572.135 22 111 108
-459.814 -211.212 571.076 74 133 118
-283.358 -97.3443 559.283 25 78 68
-610.682 -153.197 536.97 122 160 154
-321.475 -135.586 583.147 29 104 113
-307.115 -23.9311 559.146 80 172 153
-640.575 -197.743 570.734 29 45 38
-663.935 -116.054 610.353 88 107 98
-266.979 -55.176 566.965 110 177 162
-512.199 -111.179 591.776 54 78 68
-317.377 -111.629 555.983 88 170 148
-635.654 -179.26 550.87 57 82 72
-698.904 -83.638 630.397 252 217 213
-584.658 -58.8758 658.504 213 163 173
-457.383 -124.33 611.273 87 151 132
-311.123 -115.123 563.807 26 79 92
-1084.86 -255.41 757.383 73 60 58
-571.501 -288.556 585.329 97 116 131
-1035.02 -220.691 769.594 92 80 78
-585.372 -48.0419 650.78 176 172 171
-659.16 -161.002 564.681 91 126 112
-354.836 -77.3346 554.939 94 172 148
-576.054 -147.12 555.493 52 68 57
-719.85 -84.3764 788.947 179 126 165
-444.875 -30.6628 579.722 68 181 154
-636.388 -217.682 564.013 17 34 25
-625.978 -90.0403 618.1 79 91 79
-678.624 -224.747 557.873 117 146 137
-942.183 -329.784 681.358 70 53 126
-938.204 -134.757 785.662 187 182 179
-428.019 -211.577 589.485 44 78 94
-426.889 -124.461 590.323 88 165 144
-778.533 -130.421 668.542 255 212 211
-472.736 -200.228 567.883 17 28 20
-443.282 -123.729 611.87 74 157 132
-283.883 -97.8601 603.913 16 81 65
-399.226 -186.91 596.052 39 96 93
-1093.33 -286.023 737.421 134 118 119
-353.918 -79.9092 550.929 74 162 139
-431.161 -143.464 605.564 28 81 61
-463.881 -115.01 605.011 89 148 133
-687.756 -168.188 582.45 79 132 118
-515.944 -108.749 595.017 15 32 23
-314.811 -108.958 557.023 98 176 153
-451.61 -230.615 552.828 24 70 58
-486.187 -189.6 548.913 89 134 125
-583.874 -142.256 548.846 51 81 70
-908.84 -261.153 741.364 184 172 172
-497.372 -166.846 565.179 81 116 106
-610.785 -190.987 551.664 74 90 83
-615.999 -177.572 558.936 16 32 21
-356.458 -56.9814 540.027 66 166 138
-666.255 -157.99 567.97 54 96 85
-397.666 -268.24 617.404 16 105 102
-471.172 -142.615 612.395 32 61 46
-276.31 -85.1898 592.123 56 133 125
-394.389 -36.6749 551.746 25 99 73
-333.849 -33.5246 524.791 76 161 139
-447.609 -222.359 570.813 65 118 105
-551.792 -214.432 536.432 2 16 10
-509.899 -119.455 572.234 96 142 130
-539.784 -157.517 552.453 23 34 24
-273.256 5.74912 559.545 141 167 153
-642.437 -236.113 553.261 91 94 85
-420.604 -36.373 562.665 56 143 117
-561.32 -146.678 558.272 60 75 67
-651.265 -52.8073 655.303 173 135 135
-513.737 -117.619 622.573 42 64 52
-330.076 -225.418 582.044 16 119 98
-509.527 -122.584 600.217 46 60 49
-503.913 -149.453 567.983 66 105 90
-623.054 -217.821 549.833 42 61 52
-549.208 -161.439 557.983 48 54 49
-695.779 -182.55 572.069 149 145 140
-432.122 -208.5 573.323 12 58 46
-453.739 -31.9637 572.234 114 157 144
-596.256 -108.924 584.331 52 71 62
-651.378 -207.346 567.375 64 91 75
-1091.11 -265.539 751.651 84 69 66
-631.293 -234.776 543.627 13 37 27
-1113.94 -297.256 735.804 85 68 65
-715.19 -154.934 589.253 178 173 174
-496.418 -129.291 571.57 39 81 63
-604.075 -164.364 548.286 76 94 87
-624.926 -76.4909 686.541 251 188 197
-890.116 -295.044 717.218 188 176 174
-542.906 -114.001 559.814 129 153 145
-586.061 -137.857 552.757 74 115 100
-404.192 -201.385 600.698 26 96 120
-602.988 -87.5692 611.656 41 66 52
-297.912 -198.92 582.258 0 73 68
-342.707 -129.955 570.063 65 144 125
-649.971 -244.266 556.212 45 66 57
-443.998 -63.1272 581.798 58 114 93
-450.805 -21.1474 578.295 87 204 179
-387.135 -36.797 559.374 47 128 103
-562.507 -167.762 567.97 19 26 21
-310.725 -77.7901 582.139 107 183 159
-425.77 -75.4278 572.213 68 146 122
-521.298 -193.595 558.006 62 73 65
-415.203 -36.4931 580.587 52 196 161
-963.628 -198.121 785.57 110 96 90
-313.808 19.2784 562.222 35 106 79
-483.982 -189.991 551.993 77 121 114
-565.934 -208.331 534.701 30 66 54
-277.468 -109.159 593.245 77 156 145
-406.599 -36.2203 572.502 44 121 94
-1125.2 -300.537 723.003 77 65 65
-1001.42 -200.948 792.404 59 45 46
-501.249 -147.634 574.588 41 52 44
-547.882 -183.642 555.656 50 80 69
-534.887 -161.493 562.483 62 89 79
-917.206 -103.905 756.381 108 87 85
-321.641 -130.578 551.911 23 72 94
-1016.31 -149.091 823.742 51 34 37
-434.269 -110.51 595.148 77 153 129
-513.2 -152.443 620.023 62 79 70
-291.424 -101.811 582.125 19 75 62
-352.7 -148.015 580.882 72 167 152
-445.254 -128.072 610.682 12 79 58
-255.769 -86.5094 610.28 157 172 175
-940.857 -187.633 787.801 130 111 106
-633.848 -102.037 597.414 67 87 74
-930.404 -326.755 667.863 97 88 161
-489.016 -162.185 584.659 29 46 37
-1111.87 -290.963 727.803 91 73 72
-573.806 -133.665 579.567 47 51 45
-531.423 -229.241 520.816 41 79 67
-323.796 -124.548 572.322 43 114 94
-749.986 -65.2353 790.741 234 143 139
-351.372 -27.729 614.387 41 209 173
-365.573 -255.75 592.818 20 116 106
-696.202 -151.537 588.867 63 79 72
-478.523 -217.26 547.025 23 53 42
-358.624 -254.081 588.034 34 130 113
-430.446 -210.269 578.29 54 116 104
-450.013 -32.303 579.619 92 194 166
-558.881 -182.097 547.045 28 45 36
-454.986 -131.367 621.465 21 94 72
-352.425 -147.611 593.009 67 136 121
-903.201 -275.566 732.298 193 181 181
-673.106 -166.559 573.821 62 98 84
-558.499 -98.0203 607.357 126 155 146
-493.437 -129.925 617.244 34 60 46
-540.731 -104.458 584.897 49 65 54
-527.154 -171.52 554.593 24 48 38
-554.289 -201.034 542.288 30 47 38
-1062.4 -273.656 733.457 117 103 97
-486.627 -180.883 553.236 27 49 37
-382.33 -110.93 567.113 0 68 43
-454.921 -225.156 532.657 70 122 112
-714.199 -146.373 605.297 55 88 74
-412.808 -61.5504 563.271 15 77 53
-556.491 -242.429 542.579 38 74 74
-399.4 -198.099 600.919 37 100 114
-1106.87 -246.364 762.112 106 92 94
-772.96 -243.422 650.223 139 130 121
-364.057 -32.665 560.294 42 107 86
-414.323 -35.3595 571.463 75 213 179
-1053.07 -227.283 767.028 66 54 54
-593.074 -172.532 604.01 30 41 31
-567.613 -204.233 534.144 57 105 87
-395.272 -37.6138 561.05 64 138 112
-675.411 -110.205 610.301 69 87 74
-661.34 -225.215 560.087 80 101 92
-287.71 -99.653 581.22 78 158 141
-988.21 -209.045 782.618 83 67 68
-402.267 -13.8568 550.229 198 213 199
-261.738 -96.1143 562.802 71 161 148
-509.787 -125.65 624.109 111 133 121
-424.195 -218.085 581.078 52 112 111
-432.275 -81.551 578.728 83 153 130
-677.906 -231.68 554.306 51 94 81
-1031.22 -236.476 757.361 100 85 82
-460.513 -216.771 568.77 64 113 99
-549.856 -142.451 580.197 84 97 89
-424.231 -10.4282 560.964 97 181 153
-307.843 -76.3829 584.616 105 187 165
-547.027 -180.738 559.602 32 40 33
-1085.25 -232.858 769.568 62 57 56
-292.348 -97.1725 581.279 85 160 139
-451.046 -123.964 613.055 49 133 108
-407.798 -67.7007 564.107 65 153 130
-1112.52 -281.156 749.22 69 56 54
-460.244 -204.761 573.191 54 92 80
-475.108 -166.006 594.538 83 126 113
-580.025 -134.189 570.834 39 55 44
-526.449 -225.506 531.318 32 64 53
-255.477 -161.583 606.797 64 144 143
-655.979 -227.448 557.697 26 49 41
-328.887 -7.75438 578.887 12 92 61
-927.524 -338.933 658.498 67 60 95
-254.963 -125.361 586.103 49 128 117
-554.198 -145.23 572.085 34 45 35
-430.56 -215.212 576.17 62 120 115
-578.185 -145.913 548.539 45 65 53
-615.296 -235.758 531.045 104 137 130
-607.92 -167.609 541.956 37 61 49
-515.996 -148.784 582.862 69 103 92
-641.339 -244.894 549.973 39 69 58
-504.256 -196.106 550.149 59 80 71
-445.117 -71.0136 586.308 47 87 69
-326.609 -11.4735 585.115 55 131 97
-353.781 -254.52 587.856 12 100 86
-449.532 -103.32 600.081 55 129 105
-531.915 -237.045 522.416 59 104 95
-499.02 -133.074 588.947 125 149 137
-400.754 -260.864 619.962 23 123 111
-353.455 -240.79 590.009 25 140 113
-340.5 -31.1336 528.178 49 138 112
-496.244 -191.157 548.742 44 71 61
-248.347 -109.207 588.267 55 138 116
-473.749 -180.99 623.942 27 44 35
-598.569 -152.867 559.829 80 105 95
-394.045 -33.3155 598.688 46 149 121
-893.46 -253.854 736.952 128 116 112
-561.592 -136.507 556.657 48 63 55
-671.984 -191.938 581.432 41 65 55
-713.208 -205.457 589.119 116 113 108
-536.094 -125.777 566.763 42 59 50
-608.874 -236.939 538.428 59 99 88
-550.924 -90.5096 590.103 65 108 95
-384.204 -153.628 580.285 72 96 156
-598.595 -189.77 556.113 75 91 84
-561.476 -131.566 562.193 49 69 57
-1092.94 -288.351 732.684 112 100 94
-614.011 -263.538 566.034 37 72 75
-597.01 -123.529 566.298 95 114 105
-559.081 -136.614 560.34 85 109 97
-1039.6 -223.985 768.035 93 82 74
-710.757 -225.051 604.488 127 129 123
-261.658 -95.8001 574.448 60 132 119
-977.75 -183.201 799.987 152 146 151
-359.528 -78.1931 554.231 64 153 127
-272.53 -153.592 639.409 40 109 124
-555.837 -100.79 598.474 60 93 79
-261.25 -126.009 596.932 66 152 140
-595.688 -175.428 569.929 6 13 6
-683.452 -112.708 613.728 60 96 80
-398.954 -63.9119 560.668 47 139 110
-408.487 -5.73507 546.927 81 140 112
-520.512 -230.343 528.077 26 29 27
-467.461 -118.589 598.255 33 79 60
-639.553 -73.5827 716.801 246 185 219
-347.449 -182.474 574.928 26 56 81
-601.365 -198.81 551.145 66 73 68
-404.738 -42.6868 552.375 55 141 117
-407.058 -265.74 623.877 39 170 150
-648.408 -197.569 576.299 60 84 74
-1110.91 -241.333 767.506 64 58 63
-455.138 -26.9971 572.472 114 168 151
-683.925 -161.591 573.763 63 119 106
-445.34 -144.429 612.618 38 103 81
-452.797 -49.0937 582.484 101 188 168
-1096.02 -269.98 748.339 129 117 111
-1029.77 -251.287 748.525 111 102 98
-611.959 -133.559 562.438 64 97 82
-490.711 -143.101 623.172 41 61 48
-470.152 -142.745 627.986 19 56 40
-548.223 -112.627 607.786 100 125 111
-495.716 -154.697 569.964 82 120 108
-576.036 -133.004 587.503 60 75 67
-525.744 -227.089 524.081 34 62 49
-1019.05 -229.193 764.691 159 141 140
-429.603 -221.385 622.349 53 84 115
-462.986 -208.375 571.459 28 67 51
-626.013 -86.9003 621.342 67 87 75
-315.778 -61.4378 567.594 92 174 151
-376.69 -35.2072 541.226 47 138 112
-560.124 -130.975 575.414 57 70 62
-275.412 -5.29458 563.648 238 255 246
-349.079 -253.167 586.67 21 103 91
-570.945 -156.622 551.608 46 67 58
-429.528 -175.771 605.237 168 204 188
-589.85 -168.971 567.985 91 116 106
-393.29 -155.387 585.297 14 38 90
-312.043 12.0054 551.15 2 131 92
-270.114 -106.935 583.992 54 137 129
-768.242 -147.828 651.069 148 129 124
-574.532 -211.756 536.211 66 106 95
-602.918 -249.384 553.682 73 100 91
-253.71 -95.4198 576.222 57 140 125
-282.689 -158.611 617.503 52 138 144
-436.647 -214.799 569.652 59 115 104
-323.863 -124.144 625.724 103 187 162
-619.83 -185.017 556.924 101 126 116
-387.594 -276.176 614.218 22 133 113
-401.208 -208.307 598.975 35 113 129
-542.245 -121.75 588.842 63 80 67
-285.263 -108.807 611.372 28 101 91
-354.056 -67.2016 544.391 90 181 155
-368.264 -27.2777 546.989 48 128 97
-643.491 -105.523 615.252 72 89 76
-360.061 -184.36 578.257 20 36 119
-512.791 -147.512 586.857 75 99 89
-476.513 -147.683 603.898 49 64 56
-432.039 -118.153 598.661 74 147 125
-532.206 -152.613 587.749 54 65 55
-487.04 -204.579 552.965 4 20 13
-381.9 -50.1806 548.855 58 134 110
-329.103 -124.806 628.323 126 201 179
-275.083 -53.4644 560.181 91 168 147
-488.26 -145.475 615.342 33 46 38
-1176.19 -269.304 752.943 60 46 47
-499.467 -178.547 571.263 43 77 66
-331.134 -9.04691 595.492 69 191 151
-719.089 -151.891 597.942 130 127 122
-575.097 -124.232 582.801 85 102 91
-541.331 -157.187 563.977 36 76 64
-931.416 -238.892 764.929 165 157 157
-555.727 -146.872 580.667 56 70 58
-365.203 -196 582.309 30 115 137
-490.889 -152.458 606.517 32 46 35
-272.005 -112.786 589.064 40 112 124
-1007.71 -147.607 825.522 89 81 81
-1059.51 -257.303 747.356 146 129 126
-510.294 -114.738 583.933 42 59 46
-325.036 -113.002 549.54 96 185 166
-449.296 -24.7093 580.584 77 193 164
-1191.75 -268.245 762.227 102 95 102
-283.15 -56.8373 584.21 91 165 147
-645.788 -90.0438 622.028 103 129 113
-524.273 -69.9219 626.921 252 210 211
-349.866 -16.4866 580.686 0 103 67
-1125.33 -246.399 772.165 74 66 67
-490.342 -147.431 606.745 33 47 36
-559.966 -145.166 581.466 29 38 28
-479.99 -214.561 551.079 56 92 78
-1123.51 -239.875 775.844 60 49 51
-669.989 -223.127 555.855 94 105 95
-415.429 -4.4563 555.231 91 151 121
-375.888 -27.4813 581.556 71 151 144
-544.821 -122.494 579.345 53 70 59
-278.477 -5.9568 540.562 90 172 153
-1063.63 -244.082 759.69 127 108 105
-480.797 -228.612 528.234 43 61 54
-526.684 -231.078 536.547 39 73 63
-512.559 -128.163 582.851 60 76 65
-665.919 -217.965 555.518 109 141 130
-320.63 -126.638 625.388 95 175 152
-1137.06 -257.613 759.671 80 66 67
-1113.02 -277.362 744.228 122 107 104
-299.762 -111.308 598.79 74 135 115
-914.315 -255.085 746.3 181 167 168
-529.656 -150.285 592.087 24 35 25
-260.073 -80.76 568.505 54 131 110
-362.119 -219.088 598.913 4 73 63
-918.2 -246.566 756.081 132 120 116
-344.435 -36.1006 577.441 62 139 131
-573.521 -148.536 547.592 69 94 84
-342.734 -216.585 615.731 16 92 81
-249.074 -160.564 603.402 52 139 135
-595.384 -157.874 561.207 66 86 74
-480.185 -105.284 639.5 94 149 132
-361.007 -218.241 587.354 22 106 112
-604.004 -187.855 610.123 53 59 54
-251.232 -133.079 593.549 49 135 125
-251.354 -123.584 586.605 72 155 147
-284.352 -89.6374 583.743 17 96 75
-1132.59 -287.579 743.265 67 53 47
-414.067 -187.942 605.41 112 187 166
-545.868 -202.697 551.988 28 35 30
-339.088 -130.212 573.549 98 180 158
-352.675 -250.676 588.299 18 103 88
-478.598 -172.262 598.773 47 79 68
-471.048 -152.415 629.744 45 72 62
-319.104 -109.05 571.777 99 176 155
-540.343 -111.855 603.909 45 54 44
-559.057 -219.429 537.567 21 44 36
-521.697 -127.826 561.174 45 61 50
-634.926 -192.771 568.996 38 63 53
-618.066 -154.996 539.024 132 169 165
-446.74 -227.069 575.573 27 76 62
-936.728 -223.814 772.571 130 112 113
-349.451 -234.764 590.348 21 115 91
-579.776 -181.359 546.536 20 24 18
-1109.49 -263.927 749.102 61 47 48
-278.741 -91.776 597.165 88 167 148
-370.931 -255.422 599.025 21 110 101
-607.999 -182.129 569.587 52 66 60
-271.898 -154.464 630.88 33 111 118
-995.384 -269.241 743.789 131 119 117
-900.946 -252.758 758.062 133 122 118
-268.421 -6.69311 535.962 30 114 96
-314.261 -37.8899 572.779 73 159 135
-360.951 -244.313 594.722 19 93 87
-356.62 -116.666 560.422 98 178 155
-534.596 -156.871 554.988 55 90 76
-271.29 -102.267 582.59 43 118 110
-468.356 -144.229 600.286 26 45 36
-410.02 -63.9861 565.711 57 148 125
-500.231 -202.187 551.021 9 22 14
-631.554 -196.8 561.688 24 40 29
-390.163 -250.282 606.15 13 104 89
-471.392 -148.635 601.223 34 55 46
-416.803 -8.34835 555.694 79 182 145
-333.284 -214.431 577.832 41 124 122
-901.905 -263.905 738.472 127 114 116
-247.092 -171.879 611.186 36 122 112
-348.416 -144.862 592.161 70 143 127
-429.008 -226.261 571.269 47 94 92
-297.737 -11.3719 569.183 108 217 191
-392.934 -81.4464 562.048 52 141 115
-503.733 -128.08 575.05 44 64 51
-288.989 -21.9838 552.922 46 138 119
-424.151 -211.479 628.951 29 60 63
-588.206 -150.845 555.478 94 116 104
-290.084 -86.312 578.202 87 166 147
-445.804 -113.898 598.952 80 162 139
-580.227 -121.128 587.523 38 46 36
-491.062 -179.574 565.242 46 86 74
-531.456 -102.023 602.21 78 107 98
-358.362 -222.125 586.723 33 114 122
-1123.04 -284.676 747.779 108 94 88
-409.224 -72.2785 564.873 80 171 146
-285.952 -98.1663 587.157 48 114 95
-449.21 -229.397 543.994 66 108 101
-338.673 -112.15 553.357 12 102 79
-471.743 -185.23 618.785 45 63 56
-562.365 -145.793 572.139 32 41 31
-383.134 -54.6711 550.979 61 145 120
-411.822 -212.939 611.469 33 106 114
-562.795 -144.435 578.289 44 52 42
-611.215 -87.0333 612.675 50 73 59
-477.755 -151.602 603.494 55 71 60
-539.756 -85.2992 625.906 149 173 163
-399.857 18.6507 535.781 95 140 113
-605.901 -227.237 532.909 48 89 74
-533.071 -190.858 562.189 46 64 57
-617.506 -251.882 547.889 51 78 68
-605.513 -196.267 549.566 40 49 39
-501.698 -171.586 565.333 50 78 65
-251.153 -117.55 580.216 63 138 130
-457.924 -188.233 562.303 92 136 123
-460.01 -105.737 609.987 66 131 110
-371.714 -181.421 579.779 48 82 118
-459.656 -65.3486 598.931 67 124 103
-257.467 -165.959 607.178 18 101 102
-687.963 -141.708 590.625 53 77 65
-549.166 -208.205 540.761 22 46 38
-654.08 -205.483 576.424 29 51 39
-1032.24 -266.579 733.941 152 135 132
-448.315 -225.393 568.736 41 81 86
-356.503 -121.092 562.303 78 157 136
-600.465 -237.027 541.843 46 70 60
-313.921 -34.8344 578.743 60 143 128
-432.175 -16.4629 566.182 88 185 158
-532.51 -188.826 554.95 66 93 84
-337.222 -131.863 579.32 104 180 162
-604.18 -57.1806 672.69 240 177 203
-462.168 -203.26 588.553 46 101 82
-453.531 -108.239 600.856 115 156 148
-339.73 -165.273 568.106 24 112 126
-592.86 -187.616 556.166 41 53 47
-413.698 -40.4629 555.432 61 137 113
-1073 -223.617 775.677 79 66 64
-422.391 -113.063 593.023 50 129 102
-609.231 -134.998 549.476 83 127 114
-386.716 -245.113 603.83 57 142 138
-896.708 -262.752 739.661 185 178 181
-458.06 -226.688 558.964 30 60 49
-570.2 -149.694 553.74 55 78 64
-1090.77 -257.107 753.026 118 98 97
-295.185 -85.8148 583.171 95 174 155
-311.27 -264.059 665.184 5 62 63
-276.04 -134.018 618.476 49 130 138
-1014.64 -213.905 770.691 76 59 62
-594.191 -129.185 596.983 51 62 52
-599.581 -63.0132 671.43 231 186 195
-450.435 -229.207 556.19 33 75 64
