ply
format ascii 1.0
element vertex 1371
property float x
property float y
property float z
property uchar red
property uchar green
property uchar blue
end_header
-96.5284 55.8575 230.689 14 37 29
-87.3956 55.4511 230.689 150 182 171
-17.3706 41.6787 245.813 51 77 61
-95.9215 24.8789 243.229 142 153 145
-60.492 84.7978 258.699 68 84 73
-12.2978 69.239 264.614 119 144 140
-96.7355 76.9248 259.414 177 155 150
-88.6436 42.5968 215.113 69 103 96
-109.261 37.6503 258.837 49 54 55
-39.8634 69.6838 243.655 97 128 113
-47.9754 68.0713 233.269 132 146 140
-80.8766 -2.30963 238.135 11 20 17
-43.8923 85.3771 267.695 130 135 126
-39.1982 87.0298 263.831 148 169 160
-101.444 68.6375 243.827 119 105 93
-103.811 67.936 249.325 18 26 16
-14.5204 66.9873 264.519 89 118 109
-97.7405 14.4768 234.165 12 23 13
-100.13 68.9555 253.769 209 187 182
-62.9052 105.201 281.046 155 160 163
-23.2354 9.35282 232.016 102 148 136
-13.47 28.8427 264.091 168 184 173
-106.722 6.98751 238.617 45 59 55
-29.7878 82.6637 254.639 82 72 62
-84.4494 40.9461 213.528 52 83 74
3.95647 69.1868 190.225 61 139 116
-80.9135 79.0355 255.713 63 81 68
-50.9229 31.5184 222.771 19 44 34
-17.3149 61.498 265.239 42 56 45
-3.39524 55.6939 206.093 26 110 81
-7.45196 33.5535 255.365 93 136 123
-111.468 42.7121 248.575 123 147 137
-60.242 92.6033 258.487 173 148 144
-36.0921 85.367 259.114 255 227 222
-61.4733 74.3653 244.54 81 115 98
-93.8876 79.177 259.232 162 138 132
-69.3419 54.6562 225.215 131 151 138
-252.347 77.1448 396.712 176 165 173
-80.6917 82.9328 252.715 71 83 71
-17.3081 67.9224 260.771 133 154 145
-56.2896 69.341 241.336 27 47 34
-30.2831 87.0242 255.958 125 112 104
-13.9221 41.506 261.33 49 86 76
-14.09 18.3731 292.41 211 214 205
-27.6689 21.8732 245.937 0 12 3
-10.5808 22.5371 277.814 27 52 42
-258.263 75.0915 387.918 159 155 161
-66.5283 2.19959 214.744 91 126 116
-265.413 83.3872 397.342 164 157 162
-36.6052 69.9771 247.198 104 141 125
-76.8456 0.811348 230.347 36 47 44
-82.1513 14.0564 229.476 99 139 128
-29.5191 65.5734 255.831 70 105 91
-34.2556 83.6558 259.247 255 218 218
-76.4008 81.8877 261.342 95 121 107
-57.7077 72.5518 245.953 104 129 119
-96.4964 43.9697 229.174 84 112 106
-0.480999 60.3116 199.382 72 186 156
-22.1906 54.009 252.653 129 159 146
-39.3002 89.757 266.735 255 226 225
-90.886 87.9619 258.748 123 132 122
-60.0237 68.019 233 93 135 124
-82.9295 -2.16935 235.905 126 141 167
-52.7601 86.0226 244.488 78 82 77
-239.742 77.2709 391.464 178 172 177
-254.36 83.9352 395.604 168 159 162
-80.7664 8.554 222.62 91 125 118
-74.8767 24.181 216.559 33 43 37
-40.6887 74.0208 258.821 217 179 175
-208.609 80.2891 392.684 185 178 185
-95.116 42.0683 226.145 60 76 69
-72.1237 69.1051 257.74 102 124 112
-18.8333 3.99351 235.149 36 95 75
-68.2315 86.2966 261.559 146 128 117
-38.0986 12.4819 218.727 9 46 36
-95.4152 47.9436 233.495 56 84 71
-11.6997 28.0452 264.899 58 84 71
-217.564 72.3423 391.219 155 149 154
-9.52473 27.0622 256.928 54 79 65
-77.4797 55.5758 243.085 83 93 81
-53.8919 84.6741 246.2 120 105 113
-80.0998 83.6354 261.337 94 108 96
-22.676 28.2569 235.762 48 80 69
-91.2178 70.804 257.301 95 126 111
1.18023 -33.7185 258.255 56 170 140
-256.024 78.9355 385.343 166 157 160
-44.9625 46.3735 220.982 66 86 74
-82.9672 58.6491 234.928 52 91 76
-66.9666 85.5078 267.506 93 113 100
-41.2043 42.8178 221.115 124 154 141
-80.9686 73.6353 244.391 45 55 43
-239.914 80.7902 390.693 70 58 58
-46.6887 -9.30218 208.965 85 129 123
-230.615 71.3289 390.996 169 166 168
-223.952 87.024 397.219 151 146 155
-34.84 66.6738 244.936 135 162 158
-94.7098 59.6609 231.435 179 205 199
-46.378 28.035 223.891 9 24 16
-88.4827 77.4748 258.001 89 76 68
-218.632 79.0861 391.358 174 167 174
-244.151 85.1096 396.464 154 148 149
-69.2361 38.049 258.037 181 193 187
-30.0902 19.3425 235.503 9 45 33
-36.7488 82.2833 263.935 142 128 122
-95.3378 13.4764 231.162 56 89 75
-41.6236 -9.48749 209.633 104 138 132
-48.2079 58.3295 228.233 43 68 58
-229.254 93.6576 396.761 154 146 156
-235.555 86.6156 399.869 164 156 167
-36.7736 16.6332 229.563 54 108 91
-251.994 81.7398 398.535 177 171 176
-208.952 84.4821 392.746 83 77 82
-205.259 72.848 386.652 156 149 156
-65.7753 87.5364 257.604 128 116 106
-76.25 45.8913 222.191 78 106 93
-102.735 -0.149162 234.113 201 189 185
-0.850021 26.3955 231.816 76 160 135
-8.75235 37.0928 257.473 154 197 184
-38.273 21.6198 230.942 22 28 23
-104.677 55.0121 247.012 89 101 95
-39.5228 49.4548 224.132 48 55 48
-13.0427 42.7885 257.165 112 160 148
-105.723 46.6787 239.556 64 115 101
-78.3909 83.1213 262.546 114 134 121
-7.10356 24.9305 262.862 26 78 60
-19.2487 53.722 263.842 101 148 132
-212.9 87.5787 394.341 182 174 184
-97.5324 1.47081 238.36 24 42 35
-262.692 91.6993 402.32 145 134 142
-200.943 102.796 394.922 87 83 95
-69.572 47.477 217.043 83 108 98
-42.0944 89.8972 268.491 166 158 158
-5.31796 2.60004 261.618 23 32 36
-245.839 100.64 404.6 130 126 132
-252.56 92.766 402.611 162 155 162
-32.9161 13.014 220.522 74 129 114
-48.0121 28.0574 223.134 10 21 13
-74.9547 19.1136 217.883 46 70 60
-106.539 73.0634 257.61 77 79 67
-230.7 83.1289 395.885 121 113 120
-78.8608 73.826 243.669 57 90 76
-43.284 20.5211 227.878 89 116 106
50.5177 22.5222 237.719 98 180 157
-64.0626 70.1109 241.833 38 52 40
-75.6869 64.8693 232.426 134 161 152
-88.5048 51.5196 225.887 123 162 154
-194.135 73.3099 384.229 177 168 181
-10.856 68.3465 269.593 42 36 29
-37.3158 -10.6419 208.117 50 101 93
-82.1712 -4.18654 235.53 23 32 45
-43.2621 -11.0028 205.811 91 133 126
-37.191 23.7862 240.447 19 35 24
-24.5072 27.1752 234.063 89 127 115
-70.2063 21.2174 215.196 133 174 166
-261.603 86.6532 391.83 157 147 153
-69.2575 50.3121 225.509 29 46 37
-24.8267 57.463 257.016 144 164 152
-34.5222 55.8613 237.467 61 96 82
-69.7941 89.4021 254.738 117 94 86
-74.1274 48.2836 221.16 74 117 104
-20.3287 5.41326 236.22 214 196 189
-41.4223 67.9303 244.599 167 193 180
-61.1763 67.9416 257.189 85 119 108
-70.6615 60.8783 217.966 50 62 50
-220.894 83.9833 396.689 98 91 96
-3.79168 65.227 203.484 93 229 195
-15.4788 78.8882 302.169 150 155 146
-54.627 88.9206 246.802 99 106 101
-80.451 21.3776 218.349 46 62 55
-235.974 101.727 404.965 134 127 140
-240.434 92.9082 398.552 161 151 157
-56.9933 58.2199 231.975 96 126 115
-77.7256 57.9522 226.314 76 123 107
10.9366 45.5465 193.743 42 137 110
-42.8275 29.2178 222.371 72 121 107
-68.3165 60.8944 262.818 40 56 45
-53.1416 72.4528 241.346 74 109 99
-192.388 104.238 398.665 136 129 144
-25.5996 39.8195 251.678 51 67 56
-5.14762 65.8509 211.76 94 189 162
-104.894 36.7867 250.892 149 174 164
-71.7425 -9.37073 215.653 42 63 54
-201.882 88.9895 394.579 155 147 157
-30.0544 -14.9939 211.333 93 132 130
-55.1513 69.6774 250.043 83 113 102
-263.012 97.8336 398.378 126 120 131
-37.0048 10.5525 219.681 58 91 84
-18.4842 57.4644 269.39 32 66 49
-256.405 89.1549 401.798 144 138 143
-4.95911 62.184 212.929 48 118 95
-41.1389 25.675 223.269 110 140 129
-30.5437 56.501 247.854 61 94 80
-97.1593 77.8503 249.023 92 121 106
-82.9331 46.2498 214.658 99 148 134
19.6313 18.4501 213.603 55 146 121
-254.287 99.341 401.266 121 114 119
-228.336 78.7279 390.535 173 166 173
-113.223 42.3788 248.433 88 113 103
-223.065 101.582 399.528 99 90 100
-213.929 102.934 401.474 138 133 142
-92.8941 84.8001 259.641 255 233 230
-83.3263 57.0799 236.547 119 154 140
-96.1533 57.7623 230.792 92 115 107
-95.6673 39.8129 224.226 135 162 153
-34.2121 36.1083 220.61 35 59 47
-260.833 95.0031 399.166 88 77 80
-198.541 96.2824 396.9 135 127 138
-78.9657 40.0609 230.818 47 62 54
-249.815 96.0638 399.062 145 141 146
-48.9873 34.5802 227.016 63 100 90
-78.7107 80.3063 261.183 79 123 106
-104.023 81.0995 261.335 129 150 142
-221.323 99.3401 399.534 84 72 72
-221.217 95.6583 402.52 137 129 139
-32.2586 56.7926 236.593 108 154 141
-36.2613 64.8378 238.217 99 127 121
-106.972 33.8768 251.313 116 150 143
-30.1426 77.9529 252.354 154 164 158
-230.721 97.7066 398.949 56 45 48
-29.7354 -6.67066 222.872 82 125 112
-12.0513 73.5139 268.423 116 136 131
-87.7375 48.436 219.513 67 107 96
-3.10657 61.6874 210.9 117 219 191
-11.7005 52.7814 263.988 151 145 140
-36.5001 14.737 220.427 70 132 116
-33.6617 76.3494 256.252 89 97 87
-110.272 47.1101 241.895 44 48 43
-103.986 4.11344 234.309 45 59 53
-102.895 65.8741 253.179 85 115 102
-23.4077 21.1968 235.48 23 34 26
-89.518 36.6725 217.258 128 155 151
-44.4003 89.8067 271.43 247 215 216
-245.278 89.5244 399.369 131 122 125
-52.0339 51.8997 221.143 149 183 172
-209.201 95.7185 398.175 129 120 130
-26.5577 23.7713 235.259 73 113 101
-13.2823 16.1927 275.027 224 215 205
-25.9411 16.3723 240.565 95 146 132
-194.456 112.931 405.122 103 95 106
0.537178 58.3256 200.173 56 147 121
-66.7678 24.5953 249.82 23 33 27
-223.686 90.782 395.904 85 74 77
-29.8085 75.6781 253.941 133 166 159
-211.457 99.9992 401.829 56 52 51
-85.4673 48.1069 216.707 45 101 82
-21.3348 19.1995 266.22 185 198 190
-178.359 124.392 412.977 65 51 53
-57.5478 81.7528 251.922 75 108 94
3.75173 71.3409 191.307 227 248 233
-52.6837 88.1697 245.964 128 151 146
-38.9006 -6.3761 213.459 41 90 76
-76.6339 14.5986 227.993 118 146 140
-206.649 77.2729 390.781 169 166 181
-28.8203 47.2772 257.597 72 86 75
-77.8142 38.2871 228.899 38 46 39
-66.5007 44.8386 219.632 57 85 72
-28.2079 27.4354 234.145 84 109 99
-56.9185 53.1494 222.103 123 142 133
-147.865 109.486 379.795 201 190 186
-98.7879 10.565 229.998 104 147 134
-91.1883 82.2494 256.65 248 222 216
-87.1723 87.4316 259.286 152 167 163
-235.163 90.5921 399.528 127 116 124
-21.5972 -1.129 226.671 31 78 69
-203.41 93.0677 397.199 111 100 108
-15.1813 -6.18357 236.085 4 58 59
-215.06 107.705 404.224 82 73 86
-11.6566 49.3716 248.26 130 173 160
-241.658 97.3114 401.118 66 55 57
-43.9588 34.0953 224.047 31 44 36
-27.9762 49.0154 255.292 81 103 91
-69.0655 44.5274 218.358 78 117 102
-56.6258 79.6007 251.894 50 83 68
-31.9918 61.1644 241.449 99 135 123
-5.19094 64.1251 214.089 49 127 103
46.2655 21.6134 191.502 96 169 159
-216.562 76.8493 391.087 170 161 171
-205.969 112.332 407.581 107 97 109
-38.2545 66.1949 237.781 140 171 162
-23.2697 59.0135 253.587 29 45 34
-62.971 18.7021 220.687 4 19 11
-213.813 92.1249 397.839 143 131 137
-41.7012 -10.947 208.025 19 21 22
-72.055 25.1059 217.518 109 151 140
-198.099 100.018 395.594 144 138 149
-195.292 77.5858 387.286 169 164 166
-43.4719 11.9663 216.265 62 92 79
-108.907 72.1865 256.813 108 125 114
12.1501 44.5166 189.743 45 142 116
-52.7792 53.4549 220.716 112 155 140
-35.6533 12.3338 219.987 1 38 30
-30.2348 30.8788 236.138 72 108 94
-103.787 1.66316 234.911 90 121 114
-50.8307 27.5064 223.126 112 142 131
-61.4183 70.2999 230.003 53 88 74
-100.892 1.37813 234.529 73 93 88
-95.5206 51.6503 228.476 154 185 178
-74.7057 36.4115 228.549 74 101 91
27.8686 16.7514 212.476 38 77 75
-102.495 52.5943 242.425 73 94 86
0.709327 56.3899 200.718 59 131 108
31.4488 20.2248 197.471 66 131 122
-38.4499 -3.90588 213.618 55 110 95
-2.77785 46.0341 216.475 18 94 70
-69.955 59.9548 225.731 75 118 103
-106.485 40.5784 249.467 21 34 26
-49.8769 88.6945 249.139 119 104 108
-75.9487 10.741 221.896 94 122 116
-46.9527 37.4245 226.357 71 101 88
-55.1444 55.7841 224.437 104 148 135
-87.7221 35.5231 215.497 111 142 135
-29.314 60.3913 243.574 107 132 122
-79.9983 -1.38667 242.556 123 144 159
-28.9511 -12.8761 216.607 0 22 19
-106.391 79.3591 262.901 181 165 159
-44.4252 28.4347 222.182 27 59 48
-85.4324 90.0357 260.266 121 154 147
-57.6911 68.9697 253.785 36 58 46
-60.9156 95.8331 250.38 167 139 139
-224.888 86.7863 393.318 91 79 79
-5.20051 66.3551 205.142 76 154 130
-23.1373 0.659995 229.297 74 136 118
-39.3378 1.29382 221.981 40 72 61
-8.29949 61.0884 235.226 83 121 103
-56.2608 86.2285 250.908 102 107 98
-90.2828 50.257 223.676 96 136 131
-87.164 89.7091 259.329 255 232 228
-73.5131 15.3296 226.491 38 49 46
-69.3529 58.6467 231.619 69 87 74
-217.467 71.4493 384.93 121 109 107
-225.041 106.134 404.167 110 106 117
-87.6229 69.8671 251.535 44 67 53
0.799555 11.073 232.855 113 191 168
-95.4742 49.6389 230.283 92 126 119
-82.2469 92.4941 262.585 255 219 215
-35.294 51.6448 228.928 47 68 59
-84.1306 2.83079 235.841 56 79 75
-230.997 77.3298 391.01 47 33 34
-23.7444 63.0118 249.012 70 109 94
-32.6043 16.7504 233.309 13 47 36
-111.055 19.5212 237.219 41 71 60
-67.8314 36.3002 255.587 87 103 96
-25.554 -2.42178 224.28 0 10 3
-164.453 140.196 414.461 191 178 176
-22.0094 3.90586 239.597 56 103 87
-108.698 40.6997 250.233 119 132 124
-79.1692 60.3283 231.477 51 59 52
-7.15552 64.8806 215.729 67 131 109
-109.958 18.9175 239.693 24 49 39
-21.8898 42.2246 238.627 40 66 50
-19.4929 66.5144 257.367 106 136 123
-36.7401 63.1642 240.307 83 108 98
13.4077 52.6746 193.122 74 162 138
-84.2895 37.8853 213.697 53 87 76
-19.6991 -1.48591 226.248 73 122 108
-9.42665 43.3478 234.522 134 168 157
-78.0339 22.4611 215.582 104 147 138
23.0843 14.0774 222.94 18 69 65
-15.241 65.2075 268.814 40 71 56
19.5381 9.29714 209.547 38 120 121
-66.6358 89.565 254.281 255 221 217
-84.5998 66.7058 244.358 127 161 150
-102.529 56.9488 244.265 118 139 131
-1.68691 28.0566 231.366 33 100 79
-21.6707 62.651 247.929 101 123 111
-2.21251 62.9632 207.381 41 164 132
-8.71773 38.5666 247.241 100 149 133
18.0947 14.0482 216.83 56 134 103
-38.0516 61.6008 236.384 38 68 55
-96.3358 12.0564 231.545 13 41 28
-100.024 30.9851 243.015 50 77 68
-36.0802 47.2858 230.468 72 91 82
-37.9774 14.3306 217.301 43 89 76
-102.856 55.1004 246.674 103 124 121
-33.7879 73.9107 254.075 134 153 144
-236.346 105.767 406.351 85 77 87
-246.052 127.857 401.338 191 98 89
-103.489 43.3466 241.993 29 26 21
-212.14 20.4592 340.396 169 166 161
-52.659 28.9709 221.77 34 59 49
-19.835 43.7386 244.516 53 84 69
-39.3065 33.82 224.958 37 54 43
-207.709 72.647 386.477 127 115 115
-12.6161 1.20126 242.882 13 25 27
-83.5015 48.4018 216.61 59 98 82
-216.255 110.939 405.988 102 94 101
19.0994 10.8361 210.739 38 115 118
-106.82 67.1053 252.33 36 53 44
-27.5563 13.7977 226.351 74 123 107
-85.0946 77.3907 244.911 170 168 160
31.4937 15.6845 221.28 10 61 64
-73.2697 22.9595 215.284 130 163 156
-52.6298 26.3092 222.047 51 81 68
17.1356 50.0577 183.64 37 118 93
-208.761 20.8888 338.908 142 139 155
-20.7957 50.7742 256.473 56 86 75
-80.7922 17.4895 224.662 112 136 128
-69.0757 18.1983 215.558 58 87 84
-37.8869 56.1331 237.288 67 93 80
-82.8261 66.6618 246.601 48 65 54
-84.8915 87.108 257.286 82 108 95
-81.4093 46.366 217.501 48 94 81
15.4779 42.5479 190.055 50 137 111
-112.93 36.5517 265.151 104 115 107
-67.9208 -5.39652 214.571 43 76 69
-68.7537 92.1602 256.648 255 224 219
-45.3117 81.7 260.381 249 220 213
-106.715 62.2502 248.14 77 101 89
-49.9583 36.8262 228.408 36 53 44
-57.1831 34.5719 219.944 21 38 29
-96.1043 75.2229 262.94 255 222 220
-46.0559 31.9403 224.584 76 110 99
-0.12117 23.1506 233.926 75 157 134
-39.7145 28.564 221.547 122 158 144
-55.2723 28.5595 219.9 35 52 43
-100.413 36.424 241.697 81 113 102
-233.844 193.975 608.723 73 63 63
-58.7421 45.6008 226.594 79 105 92
-62.515 62.62 230.69 80 104 92
-115.405 41.2551 249.902 186 182 177
-23.7791 61.3229 251.406 88 127 112
-13.446 49.7315 259.49 138 168 157
-22.6932 17.7799 250.146 98 125 115
-83.731 73.3485 247.75 100 130 117
-73.6818 68.9925 245.771 64 81 70
20.6014 62.0611 200.676 55 119 97
-96.3326 45.9316 232.974 97 126 117
-17.6305 52.7008 266.049 85 110 100
-25.0037 18.3318 240.815 21 32 24
-103.322 59.1362 247.551 77 94 85
-46.3874 -5.81277 209.65 92 145 132
-26.3696 30.841 237.17 85 118 104
-63.1298 66.8879 236.006 88 109 94
15.9958 50.9278 188.152 68 162 137
-77.9851 4.80898 230.263 94 111 132
-79.7108 54.0648 224.939 97 139 128
-74.4286 67.7118 236.404 89 111 99
-58.9776 59.702 235.006 44 69 59
-4.06817 71.9321 212.632 71 198 167
-76.7353 9.55919 219.497 81 111 100
-32.391 46.0747 236.888 108 125 114
-91.7496 49.0209 226.868 102 144 137
-98.23 19.9379 238.865 22 42 30
-15.3839 63.007 271.535 138 141 132
-255.589 103.409 404.488 102 95 102
-49.1928 -1.37366 215.453 47 90 75
-247.708 105.403 409.808 122 115 128
-82.9234 94.476 260.041 166 179 171
-263.296 101.839 399.924 93 79 90
-101.397 20.5619 238.02 12 27 23
-2.58305 2.82697 252.922 51 105 98
-185.454 78.5025 388.437 117 111 128
-97.7145 21.847 237.007 39 58 49
-70.1805 -8.10828 213.74 67 117 107
-41.2938 46.3444 221.3 96 141 125
-64.6996 45.8666 221.857 67 87 74
11.872 53.3893 192.404 87 171 147
-66.9804 51.3616 224.528 69 94 84
-56.361 87.6887 246.833 109 122 114
-108.523 52.1247 243.911 52 80 74
-22.9375 57.0613 254.034 20 38 25
-108.871 45.3156 240.512 99 126 116
-23.0205 23.3344 235.628 56 92 80
-34.9684 58.296 240.163 128 165 155
33.3304 17.2943 204.566 2 52 52
-39.5633 -1.31633 215.022 48 87 72
-41.3751 27.4781 222.527 14 35 26
-102.407 42.7577 244.376 66 102 88
-104.929 48.3186 242.77 66 111 95
-83.8186 70.0331 249.641 74 86 74
-26.4681 74.0733 270.256 230 198 193
-106.231 4.44805 234.918 178 166 162
50.4122 18.0776 208.179 39 103 103
-23.9001 49.4278 256.439 29 45 34
-65.6258 72.3262 245.871 66 84 71
-86.4286 95.0273 259.514 171 168 163
-38.3816 63.4322 236.996 30 62 51
-34.8012 28.4873 227.378 74 106 95
-72.2918 60.4376 215.956 77 104 94
-19.5582 49.5809 258.755 75 112 96
-111.298 40.1094 250.115 65 95 84
-102.95 44.7619 245.164 30 61 52
-47.0448 55.6578 224.192 77 116 101
-72.1623 20.293 216.525 68 115 107
-81.3237 63.6278 239.406 80 103 89
-30.8793 -11.7135 213.765 83 120 112
33.2058 18.9061 202.139 112 193 184
-39.8462 13.2355 216.782 39 84 68
-102.768 21.4887 236.943 38 59 51
-49.0819 88.0164 256.819 249 194 203
-92.4285 15.8282 226.666 53 80 70
-109.827 69.0906 251.315 45 62 53
-98.6948 34.1432 235.433 43 75 64
-27.0512 -1.53801 227.419 55 108 94
-75.9356 97.9429 268.863 255 219 213
-240.114 110.186 410.661 88 75 83
-42.2756 35.6218 224.803 80 112 101
-50.8226 48.4289 226.917 64 83 74
-192.822 110.882 406.228 108 93 101
-102.421 30.7839 245.55 49 72 67
-36.548 7.97552 217.884 24 55 46
-106.599 24.2415 237.536 34 58 50
-85.8758 84.3769 253.315 149 160 152
-85.845 91.5277 258.752 157 148 144
-44.6719 60.3035 234.174 61 80 71
-82.135 16.0258 225.174 85 102 98
22.6638 58.2588 189.545 64 131 116
-187.959 102.431 406.387 101 86 84
-71.5711 63.3866 222.63 59 79 67
-45.1193 5.3787 217.78 63 94 85
-83.2121 50.2007 217.719 41 94 80
-58.2492 84.5039 255.764 32 60 47
-27.755 57.2936 251.107 51 73 61
-185.749 74.2264 384.302 128 114 125
5.25666 72.8026 193.447 99 168 141
22.0278 67.1009 217.263 73 182 160
-99.3568 25.7452 236.202 35 74 58
19.0683 12.6982 213.846 8 59 62
-118.07 21.9972 237.85 111 143 132
-33.1161 58.7268 237.077 120 143 135
-46.0686 58.9987 230.596 114 141 131
61.2019 27.0046 228.482 66 151 129
-78.6201 55.719 226.626 73 114 99
-22.0606 65.4348 251.05 134 168 158
-65.0595 42.1344 217.973 32 47 39
-57.5387 38.8105 223.38 99 114 106
2.56545 80.492 196.053 183 181 173
-82.9871 72.7326 253.018 72 91 82
-28.2498 7.57568 223.22 87 135 123
4.84565 67.3654 188.958 40 133 106
-229.45 111.18 411.459 92 82 94
-204.707 88.9202 395.258 109 91 92
15.9742 17.5539 212.476 83 177 153
-65.8926 90.6337 248.959 255 224 221
-36.307 -6.18365 219.14 34 70 58
-42.1856 9.16044 221.669 47 72 62
-75.6032 43.5267 221.265 32 49 40
7.92807 26.3045 215.155 81 177 153
-250.35 108.957 409.734 96 88 95
-50.4657 33.8656 225.231 54 86 75
-4.45893 30.8519 241.623 49 111 89
1.4795 7.99024 236.674 39 118 99
-108.593 79.2011 272.685 120 91 86
-3.6453 63.789 212.337 87 193 164
-41.5426 13.4168 217.603 26 75 59
-53.0965 48.1618 224.592 125 144 135
-80.3913 41.1923 218.322 42 57 49
-55.24 58.4714 231.535 57 84 74
8.73661 29.2655 208.173 72 167 140
-102.947 29.0104 243.212 27 55 42
-36.0227 34.9043 222.283 80 100 88
-9.64598 55.0827 275.486 101 114 106
-105.915 53.9252 245.046 91 125 118
-49.7456 61.828 235.089 50 80 67
-105.095 31.8539 248.825 96 123 114
-86.5312 38.63 216.411 65 108 99
-53.9944 27.6834 221.075 99 133 122
-41.3919 30.6027 224.621 42 83 68
0.266524 12.7477 234.418 98 173 151
-2.02812 33.3031 221.739 75 152 131
-268.975 105.715 403.879 91 82 92
-263.462 108.774 414.657 101 91 97
-12.1655 24.1739 274.745 27 60 46
-104.835 24.5903 238.689 101 126 116
-87.8432 25.8421 223.439 96 113 104
-187.809 95.6951 404.961 107 98 111
-110.774 8.52157 246.974 84 103 94
-62.3519 86.8402 257.697 74 120 101
-67.0422 40.5714 218.895 92 111 102
-8.7955 69.6662 210.137 135 210 194
1.40093 26.1892 231.445 15 93 69
-173.284 38.912 363.91 42 30 28
-44.0824 -9.56523 208.386 15 13 13
-61.6878 113.091 313.09 114 57 56
-106.006 2.46362 237.12 184 173 169
-62.0122 52.3331 236.749 122 142 129
43.0967 68.9807 196.958 13 100 67
-186.428 88.2187 396.908 172 170 189
-65.058 51.5506 236.547 53 59 48
-100.568 12.2117 238.694 36 57 48
-67.6201 -2.75607 211.604 84 128 115
-21.8323 10.6226 241.906 34 61 51
-31.1856 7.43214 225.609 65 108 95
-51.6873 -5.20652 218.386 60 96 84
50.3825 55.3225 180.418 40 125 103
-48.0792 74.2978 243.461 139 159 154
-110.928 65.0077 255.967 39 50 42
21.1569 17.5917 212.443 106 186 163
-1.31831 24.6576 233.25 31 111 88
-19.3357 62.656 262.15 31 67 53
-38.8719 8.07606 220.522 49 76 67
8.06373 65.0247 190.309 61 204 171
-228.838 103.699 400.314 76 58 59
-40.6926 2.41739 220.967 34 58 48
-15.7204 38.6909 254.906 22 48 34
-12.9134 55.3446 278.551 188 180 173
6.8057 32.9105 210.549 81 183 155
11.6557 87.8931 187.112 242 252 240
-92.8638 -0.360969 234.566 137 153 159
-105.111 42.6642 241.604 63 84 75
-36.8417 -3.46816 213.607 23 56 42
-37.4173 48.2876 227.695 102 144 133
-87.9813 56.9828 242.361 129 153 143
-70.0847 45.6195 216.993 105 143 131
-81.5418 23.6359 223.831 63 87 77
-67.4625 62.4411 246.105 31 56 46
1.67465 5.75712 239.593 35 100 98
15.7851 53.3341 187.077 61 149 125
-204.543 107.108 398.924 76 64 60
40.3646 67.5461 181.836 43 105 81
-43.5546 48.0541 223.316 24 33 23
-19.0132 23.6212 257.298 12 27 19
-101.245 17.713 234.853 20 39 30
-79.2502 10.0185 222.832 40 57 46
-50.4991 25.3362 223.088 7 18 10
-109.385 82.3846 270.4 151 117 118
-3.16618 8.07977 249.657 78 151 129
-21.1899 61.5342 254.617 37 54 45
-177.013 113.436 412.697 75 67 67
-41.9683 40.47 219.668 37 51 40
-82.8132 25.6847 226.764 65 90 80
-18.424 65.0475 258.326 39 76 60
-72.2232 13.7698 227.445 71 100 91
-49.9425 21.8854 224.861 70 94 84
-13.9626 45.9192 244.018 74 129 110
-38.0021 30.6437 223.904 24 37 29
-75.1629 58.0339 222.134 72 97 87
-118.322 24.0723 241.028 149 170 162
-71.9192 57.9986 213.727 33 68 58
-235.88 132.543 414.819 199 107 102
-52.3126 55.0001 218.241 69 118 102
-104.26 27.2651 242.53 118 148 143
-20.7207 57.1792 255.195 70 88 75
-70.524 56.0352 223.389 50 78 65
-107.796 49.8702 242.518 112 156 143
10.2599 89.4587 186.686 213 219 202
-34.9245 38.0212 222.609 41 78 62
-42.2877 16.589 232.314 88 130 113
-32.8462 -12.4821 212.001 0 14 11
32.6139 17.1748 209.177 48 94 95
-37.092 25.4687 236.096 27 49 37
-23.5783 52.8532 253.191 29 70 55
-29.0753 51.0774 247.247 51 75 63
-43.0809 46.1439 220.749 51 68 57
-81.6662 39.8089 214.541 113 141 135
-225.718 101.413 399.636 67 54 56
-88.3632 19.1909 237.545 23 30 25
-49.007 42.878 226.229 35 46 38
-102.704 8.17575 234.492 84 111 102
-92.3794 45.0817 224.154 117 142 138
-94.6349 4.75705 234.881 40 74 63
62.4695 25.3291 205.496 56 137 122
-105.122 26.3487 239.339 69 94 84
-48.4254 44.7317 224.031 105 130 120
-40.8094 7.88974 222.346 59 95 83
-27.6771 25.5137 232.326 37 69 58
-114.725 22.2515 237.719 74 112 100
-1.2183 11.1032 239.628 102 182 159
-189.198 116.773 420.374 79 69 82
-39.5252 53.7959 235.167 97 114 103
-79.022 94.0623 259.438 122 132 119
-36.5992 38.4124 222.481 46 81 67
-116.598 20.7295 238.558 126 156 145
-229.148 74.0955 391.277 130 119 121
-79.8353 47.7699 223.509 117 143 130
-205.32 29.5989 349.229 122 109 163
-27.9553 45.5431 258.311 34 52 39
-44.1497 39.9397 229.932 104 121 112
-2.99164 53.644 207.329 66 145 118
-103.879 15.6368 241.596 61 78 67
-34.2996 -5.11688 220.45 29 59 46
-122.129 58.32 283.418 131 132 130
5.43329 49.5758 199.333 26 110 85
-37.9916 41.0949 225.8 42 56 45
-202.96 19.8749 332.205 94 81 113
-49.6358 41.6318 232.361 89 106 97
-106.013 83.2783 263.426 233 206 202
11.7404 1.26759 220.778 98 138 156
-6.45308 27.6525 255.448 47 96 74
-32.4546 49.9519 235.355 57 79 67
-195.036 109.4 401.425 72 61 64
-108.651 66.9806 250.212 117 128 118
-67.871 18.3254 219.259 60 84 74
-26.7908 1.74177 230.125 32 75 64
-60.616 63.6217 246.701 59 82 68
-76.7906 52.5246 234.078 35 43 36
-186.691 90.753 396.413 107 100 103
-108.942 30.5683 246.509 107 151 138
-34.0628 46.2674 234.719 83 111 98
-84.6894 45.4106 217.125 101 137 125
-27.8742 18.6306 241.428 21 34 26
-3.00198 4.97879 258.607 53 132 113
-13.414 37.1222 260.425 34 66 55
-92.2829 8.42008 247.409 144 156 150
-187.911 99.3666 404.528 93 85 86
-79.3915 71.8073 252.682 41 59 46
-67.1863 53.021 238.549 49 65 54
-28.846 53.1687 246.266 26 51 37
-77.264 92.7953 262.231 100 104 92
-84.2155 89.3408 262.01 220 185 181
-76.3348 50.324 224.365 44 74 61
-28.7148 -2.19621 227.684 42 85 70
14.1157 41.6463 191.605 131 221 192
-47.0446 14.9024 229.007 99 141 124
-102.274 14.3458 241.185 42 57 49
-78.5253 90.9813 261.884 255 226 221
57.6266 17.4104 226.443 26 95 114
-48.9474 25.8237 223.984 0 10 4
-53.3429 59.3344 230.79 129 168 160
0.746574 -28.0221 254.999 41 226 186
-109.114 26.4433 235.815 60 91 82
16.3648 51.2059 180.306 64 151 125
-171.415 79.1304 392.91 168 156 156
-89.0945 84.0592 254.857 128 139 129
-2.95626 43.6908 216.499 65 149 124
-67.3951 35.8293 220.005 105 124 115
73.3438 33.7732 223.758 187 182 179
-43.4971 0.00383327 218.843 30 64 53
-61.0376 63.0226 232.549 111 138 128
-18.2081 -3.43793 226.558 64 122 117
-74.4703 9.39331 219.844 0 10 7
-186.537 82.436 390.761 124 110 116
-48.1344 64.2642 234.688 72 94 82
8.57932 63.4809 200.368 36 99 73
-60.9304 26.9392 227.593 96 112 105
-33.261 63.4174 242.903 118 159 144
-88.1999 94.0392 258.301 255 217 212
-218.024 103.953 397.622 85 73 73
-64.2527 -5.45629 212.686 63 100 90
-97.0771 26.5671 242.997 31 52 43
2.57782 -31.2298 253.723 30 152 122
43.8197 73.0008 189.237 53 140 106
-70.3566 16.7976 216.967 65 93 87
-84.7893 25.352 226.63 21 40 31
-90.2542 34.5955 221.073 48 75 65
-33.4643 48.5279 237.66 62 79 68
-180.265 140.517 423.672 131 116 113
7.86801 5.26306 228.843 80 114 144
-108.857 22.163 238.623 31 75 62
-12.6825 -2.84777 241.821 74 136 124
-9.49719 71.9312 212.233 142 200 182
-60.2044 64.8596 231.774 137 171 160
22.5457 55.102 179.142 130 219 193
-44.3659 30.2629 221.661 25 77 60
24.1011 16.8539 202.54 71 144 128
-13.1307 31.3546 263.275 33 54 45
-31.0136 52.646 241.312 57 71 59
-172.163 39.6012 368.533 126 114 114
-86.1126 36.7629 215.101 120 157 149
4.5902 3.85783 232.482 22 84 100
-15.056 0.397012 241.131 45 110 95
-29.1069 41.9287 243.849 63 87 75
-32.587 41.4986 226.273 31 51 39
-30.557 -13.588 212.97 2 17 19
-164.413 145.114 410.067 67 45 47
-108.145 60.6536 247.814 166 185 182
28.2101 20.8768 202.232 9 92 70
-84.6267 27.0857 226.869 21 35 29
19.2469 66.2185 178.057 100 207 181
-2.3053 40.3744 222.293 69 150 125
-92.785 26.443 236.805 44 59 51
-66.3617 23.9412 220.799 39 59 47
-187.587 111.132 411.659 68 53 57
-97.0646 32.1321 234.825 2 30 17
-71.7695 -7.08817 213.939 37 80 67
-95.9596 37.7051 229.456 17 38 29
-77.4518 7.10699 223.32 11 21 15
-42.4256 4.15265 220.031 81 105 97
33.0087 16.9676 222.804 13 49 43
1.96738 3.5051 238.951 48 119 123
-107.153 39.3796 257.387 51 78 68
61.3811 24.4374 210.962 54 131 117
-100.161 78.9972 253.174 255 217 219
-27.8911 -4.19042 227.631 61 98 94
61.6521 23.5747 202.327 77 156 142
21.2525 57.9919 191.619 67 150 128
-55.5828 99.2512 263.678 220 136 140
-29.4156 -5.09176 224.574 21 59 47
-99.84 23.509 233.847 99 138 123
-19.4267 46.7602 254.116 61 98 82
-44.4129 51.0926 232.829 24 33 23
-37.3872 19.7594 226.405 59 79 67
-55.4255 50.9269 220.814 53 74 65
-231.652 101.503 404.869 41 30 33
-58.6975 20.4127 225.669 94 121 111
20.6423 54.8928 176.438 55 141 117
-44.4612 62.3876 234.156 106 138 127
-45.9989 71.8469 242.273 83 126 115
-174.738 54.2366 385.328 186 174 172
-84.0656 19.4928 228.412 63 84 76
2.59189 -23.8401 255.756 34 139 120
-58.9732 28.7738 222.888 21 27 22
-63.073 -6.74816 213.221 33 51 44
-145.695 101.082 381.527 151 130 128
40.3312 59.1085 211.818 47 142 122
60.9605 60.8055 184.994 58 129 109
-69.8855 42.7806 218.045 65 104 89
-37.9724 52.6297 233.132 44 63 54
-237.033 87.146 396.046 86 74 68
-14.4365 -3.92528 237.57 46 106 98
34.3436 -12.6052 212.446 22 111 108
-28.4753 1.51333 229.036 74 133 118
46.5028 22.9273 200.89 25 78 68
-85.6955 40.2343 212.054 122 160 154
34.0818 15.3432 215.374 29 104 113
42.8418 55.8012 191.426 80 172 153
-93.6149 30.802 237.586 29 45 38
-85.3754 71.7107 251.529 88 107 98
58.0862 38.8854 196.678 110 177 162
-33.5922 51.965 233.767 54 78 68
30.752 21.2158 201.43 88 170 148
-94.4007 35.0945 225.047 57 82 72
-90.1911 91.6219 259.752 252 217 213
-39.3439 92.929 271.452 213 163 173
-9.44929 41.441 234.756 87 151 132
34.1862 19.9299 201.135 26 79 92
-233.869 95.2825 399.98 73 60 58
-75.7191 -14.2588 261.585 97 116 131
-208.305 105.491 400.126 92 80 78
-40.5407 96.2832 266.25 176 172 171
-98.1111 47.0752 232.152 91 126 112
17.7221 39.2479 190.186 94 172 148
-68.987 40.7611 220.584 52 68 57
-63.2343 126.549 379.7 179 126 165
-4.18553 73.7291 212.921 68 181 154
-96.5046 21.5067 240.111 17 34 25
-67.2525 78.4374 250.664 79 91 79
-113.69 23.4575 239.908 117 146 137
-202.409 32.1519 352.987 70 53 126
-155.074 130.542 385.723 187 182 179
-11.451 -1.37535 245.569 44 78 94
-3.13758 34.8324 226.997 88 165 144
-115.605 88.961 291.278 255 212 211
-33.1123 7.39182 227.101 17 28 20
-4.08684 39.7067 231.452 74 157 132
59.0253 28.4435 223.441 16 81 65
3.17517 6.28035 234.077 39 96 93
-245.17 80.3463 393.678 134 118 119
16.9138 37.6445 189.252 74 162 139
-2.42262 29.62 238.159 28 81 61
-12.3908 45.9822 239.34 89 148 133
-104.986 50.151 243.121 79 132 118
-33.964 53.9068 235.672 15 32 23
32.6911 22.0863 203.674 98 176 153
-31.8028 -9.62053 220.492 24 70 58
-41.8839 11.2384 217.796 89 134 125
-72.7758 42.7712 216.709 51 81 70
-171.93 66.7391 386.66 184 172 172
-39.8657 23.7786 224.288 81 116 106
-86.7159 27.2488 226.267 74 90 83
-84.4121 33.9656 222.799 16 32 21
15.8401 46.1551 187.008 66 166 138
-99.4313 49.508 233.158 54 96 85
2.14636 -25.8237 255.997 16 105 102
-15.5789 36.8065 254.327 32 61 46
59.4304 31.1257 214.472 56 133 125
6.67644 60.6848 194.095 25 99 73
22.0998 50.422 174.799 76 161 139
-24.9738 -4.75254 228.917 65 118 105
-71.3504 8.47436 218.422 2 16 10
-38.3184 45.5737 223.209 96 142 130
-57.6719 31.4833 219.095 23 34 24
58.8636 63.6629 187.527 141 167 153
-103.763 13.5383 240.209 91 94 85
-0.147605 65.7397 201.976 56 143 117
-63.0521 39.453 221.622 60 75 67
-65.0925 103.864 275.285 173 135 135
-26.9833 53.9758 252.446 42 64 52
22.2913 -20.7726 224.113 16 119 98
-31.5427 48.1703 239.572 46 60 49
-39.9548 32.0199 224.037 66 105 90
-94.523 17.954 230.575 42 61 52
-60.0198 31.8017 221.646 48 54 49
-111.651 44.2102 240.458 149 145 140
-17.1846 -0.812476 226.732 12 58 46
-9.57542 73.1438 209.297 114 157 144
-66.0798 62.3666 233.147 52 71 62
-99.8001 28.0115 240.16 64 91 75
-238.586 90.8805 398.249 84 69 66
-103.421 11.3512 241.044 13 37 27
-257.159 78.7532 400.573 85 68 65
-111.584 59.5399 245.468 178 173 174
-34.3994 39.7893 223.115 39 81 63
-82.2492 36.5857 220.057 76 94 87
-49.7842 96.3053 296.43 251 188 197
-174.051 45.4711 375.79 188 176 174
-52.8819 50.2416 217.628 129 153 145
-72.1883 45.249 217.978 74 115 100
1.19925 1.49166 238.711 26 96 120
-60.1493 75.6876 246.113 41 66 52
37.073 -14.1374 218.591 0 73 68
22.8263 18.894 209.641 65 144 125
-108.823 11.4681 251.227 45 66 57
-6.24853 60.9502 217.506 58 114 93
-5.93408 77.9901 211.286 87 204 179
11.4726 60.8983 198.229 47 128 103
-63.1306 32.2812 228.327 19 26 21
43.3922 37.4127 209.566 107 183 159
-3.06162 52.2278 211.765 68 146 122
-54.0661 15.2262 235.136 62 73 65
6.64499 67.6921 211.584 52 196 161
-175.895 109.102 407.227 110 96 90
45.0917 74.5781 189.919 35 106 79
-40.3244 11.1611 218.971 77 121 114
-77.2192 12.4522 222.867 30 66 54
56.7547 21.5711 216.097 77 156 145
7.73344 65.4999 206.5 44 121 94
-260.524 76.0071 386.765 77 65 65
-190.365 114.595 416.071 59 45 46
-37.1597 33.2546 227.116 41 52 44
-62.4525 22.49 224.698 50 80 69
-53.866 30.5239 224.355 62 89 79
-145.401 131.446 347.179 108 87 85
25.4974 13.62 196.988 23 72 94
-183.19 144.978 429.51 51 34 37
-3.51881 42.148 226.68 77 153 129
-30.4723 38.4319 244.371 62 79 70
50.5942 25.171 218.132 19 75 62
20.3914 14.1735 218.103 72 167 152
-5.30574 38.2727 235.392 12 79 58
74.2833 30.3493 227.185 157 172 175
-165.649 111.318 407.7 130 111 106
-76.026 71.6202 241.315 67 87 74
-201.056 29.96 345.772 97 88 161
-31.4369 27.0253 233.536 29 46 37
-252.979 78.8569 386.507 91 73 72
-61.4854 49.1318 232.88 47 51 45
-69.1454 -2.06075 211.745 41 79 67
31.0287 18.8448 208.146 43 114 94
-73.0467 139.157 378.933 234 143 139
42.0984 68.6376 228.349 41 209 173
8.9631 -27.5598 237.399 20 116 106
-105.395 58.8298 246.809 63 79 72
-42.1018 -1.25966 219.182 23 53 42
10.4767 -28.3183 233.909 34 130 113
-15.3365 -1.54675 235.094 54 116 104
-6.3335 73.5396 212.5 92 194 166
-68.2265 23.4773 220.071 28 45 36
-6.62593 39.4711 238.855 21 94 72
23.9776 15.7959 225.049 67 136 121
-173.77 58.2699 383.773 193 181 181
-101.63 47.8556 238.242 62 98 84
-45.8959 65.615 244.696 126 155 146
-21.7542 45.416 249.022 34 60 46
-45.2361 57.2857 230.314 49 65 54
-53.9649 24.5147 221.827 24 48 38
-70.9478 14.6785 228.574 30 47 38
-232.28 80.6844 386.871 117 103 97
-40.3743 15.2807 222.648 27 49 37
8.65903 31.3446 208.617 0 68 43
-37.5354 -9.18584 209.675 70 122 112
-107.647 65.3399 255.398 55 88 74
0.692528 54.863 204.632 15 77 53
-74.8019 -1.6419 227.498 38 74 74
3.39418 2.23584 237.93 37 100 114
-239.248 102.502 400.803 106 92 94
-132.474 40.8701 305.542 139 130 121
20.755 59.7307 196.656 42 107 86
4.64189 66.6901 206.485 75 213 179
-216.331 104.569 399.958 66 54 54
-66.9681 39.4498 254.245 30 41 31
-78.1518 14.1626 225.455 57 105 87
8.74876 61.7747 199.301 64 138 112
-88.8278 75.3272 250.851 69 87 74
-107.33 21.2877 241.093 80 101 92
51.9133 25.4389 216.773 78 158 141
-187.667 107.241 408.627 83 67 68
5.30977 70.3397 190.982 198 213 199
54.8881 20.9662 196.714 71 161 148
-25.8374 50.3623 253.981 111 133 121
-12.9748 -5.30207 235.962 52 112 111
-4.31986 51.5732 216.868 83 153 130
-114.906 20.1552 238.816 51 94 81
-212.253 96.6139 397.154 100 85 82
-29.8432 -0.939415 228.363 64 113 99
-53.4474 42.6725 233.546 84 97 89
0.33188 76.0945 198.2 97 181 153
45.3829 37.948 210.688 105 187 165
-60.8895 24.0298 226.073 32 40 33
-228.477 106.787 403.382 62 57 56
49.0581 26.9304 211.783 85 160 139
-6.62513 40.907 234.141 49 133 108
2.22455 51.8593 205.205 65 153 130
-250.007 87.0088 402.126 69 56 54
-27.494 4.4748 229.418 54 92 80
-24.0168 24.854 238.173 83 126 113
-65.7252 48.4524 227.847 39 55 44
-64.5444 -0.0354301 216.618 32 64 53
65.254 -1.88816 228.709 64 144 143
-106.304 19.3908 240.382 26 49 41
41.7756 68.1389 202.741 12 92 61
-206.381 23.0669 348.91 67 60 95
62.152 10.8376 212.649 49 128 117
-57.1754 40.9867 229.11 34 45 35
-16.48 -3.45605 228.8 62 120 115
-71.0664 40.5328 216.062 45 65 53
-98.164 7.62984 224.409 104 137 130
-85.5309 35.052 218.344 37 61 49
-40.2716 35.4452 224.967 69 103 92
-105.964 9.44313 243.118 39 69 58
-48.9172 11.1598 220.575 59 80 71
-6.16642 58.67 221.611 47 87 69
44.3154 67.4034 207.137 55 131 97
12.2062 -29.1263 232.975 12 100 86
-7.18434 48.0456 232.775 55 129 105
-69.7823 -5.00231 213.9 59 104 95
-31.4116 40.9756 233.807 125 149 137
2.34798 -21.9826 257.048 23 123 111
14.215 -23.218 232.928 25 140 113
20.7169 52.6286 176.525 49 138 112
-45.8214 11.9263 218.785 44 71 61
67.1633 16.9368 212.752 55 138 116
-17.1936 22.2948 261.674 27 44 35
-76.5456 41.8772 224.172 80 105 95
20.0842 69.1671 220.926 46 149 121
-165.547 66.9688 380.72 128 116 112
-62.4805 43.2597 219.137 48 63 55
-102.74 38.8475 247.512 41 65 55
-116.894 39.6895 254.138 116 113 108
-49.871 45.6542 222.316 42 59 50
-94.3385 7.16236 228.003 59 99 88
-46.4317 64.9024 232.278 65 108 95
7.61991 16.0531 220.078 72 96 156
-81.3734 26.7282 228.513 75 91 84
-60.672 45.921 221.375 49 69 57
-246.427 78.6255 391.591 112 100 94
-92.9974 0.179928 247.253 37 72 75
-71.6009 53.9905 223.572 95 114 105
-60.7751 43.4149 221.288 85 109 97
-210.894 104.487 400.171 93 82 74
-113.582 33.2796 260.157 127 129 123
58.6953 22.5729 203.999 60 132 119
-177.318 120.586 417.525 152 146 151
15.7495 39.4257 190.301 64 153 127
69.5511 7.87927 248.876 40 109 124
-47.2203 62.6566 238.501 60 93 79
63.0736 12.7604 219.782 66 152 140
-74.393 33.5243 225.886 6 13 6
-91.3234 75.9312 253.949 60 96 80
4.94718 51.7369 202.18 47 139 110
2.86191 73.7925 188.818 81 140 112
-63.6079 -3.17423 215.185 26 29 27
-15.6331 44.6988 243.899 33 79 60
-47.6554 105.137 317.778 246 185 219
17.43 -1.33984 216.408 26 56 81
-84.4309 22.8695 227.364 66 73 68
2.45767 59.6917 195.661 55 141 117
0.496156 -22.7437 260.356 39 170 150
-93.73 32.3544 234.565 60 84 74
-239.067 106.032 403.473 64 58 63
-9.58918 75.3094 208.937 114 168 151
-104.859 51.1099 237.784 63 119 106
-6.06129 32.0687 243.417 38 103 81
-8.09221 67.8321 217.17 101 188 168
-241.427 89.0593 396.715 129 117 111
-215.517 88.6806 394.264 111 102 98
-78.8492 51.4658 223.968 64 97 82
-20.4518 39.6504 243.245 41 61 48
-11.2714 38.3488 256.468 19 56 40
-43.3043 58.3814 245.544 100 125 111
-36.9233 29.0867 225.411 82 120 108
-60.4175 50.8034 237.543 60 75 67
-66.0622 -1.56587 212.537 34 62 49
-205.398 99.4108 400.544 159 141 140
-4.54697 -0.898541 256.57 53 84 115
-29.3026 3.16665 228.923 28 67 51
-66.563 80.6781 254.74 67 87 75
37.4077 42.3806 194.525 92 174 151
10.5396 57.4789 186.783 47 138 112
-57.1794 47.8802 229.474 57 70 62
58.086 59.959 190.283 238 255 246
13.8445 -29.3741 232.024 21 103 91
-68.6754 35.7398 217.614 46 67 58
-4.92931 16.1511 240.713 168 204 188
-72.4286 35.1817 225.552 91 116 106
5.37322 17.1732 223.839 14 38 90
41.7407 69.606 183.742 2 131 92
57.0602 20.3159 210.229 54 137 129
-118.068 78.5368 285.652 148 129 124
-80.9445 12.3245 227.556 66 106 95
-90.1732 3.0599 237.851 73 100 91
62.4509 21.8832 204.62 57 140 125
57.6253 4.54774 235.315 52 138 144
-20.4228 -3.22554 226.052 59 115 104
48.6125 25.9354 247.427 103 187 162
-87.194 31.2964 224.137 101 126 116
4.47576 -30.9976 254.356 22 133 113
1.22668 -1.99302 238.064 35 113 129
-46.5399 51.1832 235.231 63 80 67
61.4574 25.2246 235.256 28 101 91
16.9053 42.3021 189.369 90 181 155
15.9707 60.4357 188.919 48 128 97
-76.1279 74.3787 253.774 72 89 76
13.417 -0.0407373 219.761 20 36 119
-38.003 36.0357 226.339 75 99 89
-20.4146 33.7922 241.43 49 64 56
-2.85653 38.7103 222.665 74 147 125
-45.3799 36.6882 229.267 54 65 55
-42.5976 5.75988 221.249 4 20 13
9.27809 53.2478 192.315 58 134 110
46.3141 26.5985 245.132 126 201 179
52.7356 39.6402 192.163 91 168 147
-21.7308 37.5204 242.809 33 46 38
-265.199 99.0459 393.657 60 46 47
-40.2522 20.0636 228.96 43 77 66
45.9457 70.6562 213.506 69 191 151
-111.224 62.6021 251.334 130 127 122
-60.2701 53.4831 233.445 85 102 91
-55.3007 33.2394 223.521 36 76 64
-172.375 83.2191 397.577 165 157 157
-55.9115 41.7038 234.465 56 70 58
11.488 -3.65459 223.372 30 115 137
-25.6655 34.1136 244.696 32 46 35
57.3732 18.7871 213.944 40 112 124
-179.742 145.257 431.761 89 81 81
-226.197 89.3635 392.19 146 129 126
-35.138 49.1163 229.032 42 59 46
25.9059 20.8743 198.822 96 185 166
-5.08044 76.7831 213.037 77 193 164
-270.294 103.384 402.117 102 95 102
55.0798 42.2498 201.24 91 165 147
-73.8922 81.8546 255.84 103 129 113
-25.3694 75.5883 250.523 252 210 211
33.5115 67.619 206.348 0 103 67
-244.535 106.684 408.432 74 66 67
-24.9223 36.1288 244.046 33 47 36
-57.1176 43.0436 234.908 29 38 28
-41.389 0.513596 221.008 56 92 78
-242.907 110.057 410.916 60 49 51
-110.575 22.7117 237.123 94 105 95
2.57305 76.3724 193.438 91 151 121
22.6282 66.4527 208.605 71 151 144
-49.784 49.8165 229.471 53 70 59
49.7354 56.5806 177.048 90 172 153
-224.976 98.04 401.024 127 108 105
-48.611 -7.7096 210.995 43 61 54
-64.0392 -1.715 220.671 39 73 63
-37.5817 43.9715 231.456 60 76 65
-108.662 24.1956 236.085 109 141 130
50.0427 24.4278 249.318 95 175 152
-250.316 100.596 398.168 80 66 67
-248.675 87.3045 394.477 122 107 104
51.5975 24.5184 229.871 74 135 115
-172.099 70.8987 388.632 181 167 168
-43.276 37.9301 232.291 24 35 25
59.2168 27.6959 200.339 54 131 110
15.2056 -11.8372 235.236 4 73 63
-170.633 76.8206 394.33 132 120 116
32.8573 58.4248 205.787 62 139 131
-69.9053 38.8093 215.85 69 94 84
27.7907 -11.6504 243.358 16 92 81
66.8447 -2.75721 226.168 52 139 135
-75.8177 39.7765 226.622 66 86 74
-8.56646 57.1392 259.202 94 149 132
12.5123 -12.917 228.638 22 106 112
-70.0533 34.9714 252.718 53 59 54
65.4484 7.97436 218.106 49 135 125
63.9616 11.1377 212.745 72 155 147
53.4395 29.2717 211.176 17 96 75
-257.559 85.4933 396.668 67 53 47
-0.0540129 8.99636 241.08 112 187 166
-65.8254 14.051 234.818 28 35 30
25.1128 18.7354 211.018 98 180 158
13.0713 -27.5731 232.392 18 103 88
-24.8435 23.2894 241.465 47 79 68
-11.775 35.0887 267.317 45 72 62
35.1769 24.4822 211.651 99 176 155
-41.2158 57.0927 242.61 45 54 44
-74.4221 7.52367 221.196 21 44 36
-46.1704 42.2941 219.312 45 61 50
-90.4184 31.6511 230.975 38 63 53
-88.1584 40.7719 214.337 132 169 165
-23.8684 -6.29021 232.135 27 76 62
-171.565 92.1229 402.403 130 112 113
16.3915 -21.1945 232.008 21 115 91
-75.8315 26.4276 220.991 20 24 18
-243.749 92.9418 393.173 61 47 48
59.4386 29.3806 218.225 88 167 148
8.62692 -26.0116 241.236 21 110 101
-79.5481 32.4249 227.596 52 66 60
66.8671 6.37372 243.303 33 111 118
-206.775 75.8425 395.381 131 119 117
-164.232 72.0204 396.04 133 122 118
52.2179 54.3922 174.232 30 114 96
42.8366 53.0357 200.767 73 159 135
12.261 -23.1022 236.181 19 93 87
15.952 24.7655 203.121 98 178 155
-55.091 31.3803 219.817 55 90 76
56.6197 22.2314 209.169 43 118 110
-17.8834 33.9131 243.971 26 45 36
2.1332 53.8305 205.652 57 148 125
-47.7809 8.2594 221.306 9 22 14
-92.6354 28.8975 233.841 24 40 29
3.59194 -20.3682 246.172 13 104 89
-19.2502 32.3473 239.365 34 55 46
1.87275 75.1581 194.503 79 182 145
20.8369 -16.1834 220.659 41 124 122
-170.769 64.2858 386.768 127 114 116
69.4589 -7.05872 233.041 36 122 112
25.5208 16.2831 223.905 70 143 127
-18.1801 -8.82661 227.8 47 94 92
50.634 61.2197 195.645 108 217 191
5.98099 44.1097 204.046 52 141 115
-36.137 41.6774 225.119 44 64 51
48.0708 53.3344 186.39 46 138 119
0.289147 3.34466 258.3 29 60 63
-73.6174 40.7914 221.1 94 116 104
49.7214 30.672 207.705 87 166 147
-7.05257 43.0438 232.727 80 162 139
-60.7366 56.0227 235.873 38 46 36
-39.117 17.8232 232.846 46 86 74
-37.3685 59.6887 240.075 78 107 98
12.9852 -14.9529 228.358 33 114 122
-253.145 86.2457 399.144 108 94 88
1.50885 50.3542 206.507 80 171 146
54.4174 26.5738 219.296 48 114 95
-33.0023 -10.434 215.611 66 108 101
21.9639 23.4703 202.596 12 102 79
-18.1279 19.6223 263.312 45 63 56
-60.2358 41.8375 229.87 32 41 31
9.02173 51.9581 194.268 61 145 120
0.126282 -1.03349 246.89 33 106 114
-58.8772 43.3012 233.57 44 52 42
-62.988 77.2322 247.913 50 73 59
-21.3606 32.2918 241.693 55 71 60
-32.9854 71.1421 252.562 149 173 163
5.19702 80.4019 179.42 95 140 113
-93.9089 9.94958 225.534 48 89 74
-56.1467 18.423 228 46 64 57
-97.0858 3.33306 236.066 51 78 68
-86.0076 24.2292 226.405 40 49 39
-41.879 22.4487 225.071 50 78 65
62.5234 12.8478 208.219 63 138 130
-27.8257 9.6427 221.294 92 136 123
-8.77593 49.8534 239.536 66 131 110
9.66978 2.92295 221.279 48 82 118
-7.81867 64.7262 229.242 67 124 103
64.2304 -3.43472 229.698 18 101 102
-100.933 61.8252 245.516 53 77 65
-68.8396 11.1334 220.115 22 46 38
-98.3721 30.2508 243.883 29 51 39
-220.556 79.8915 386.005 152 135 132
-26.0566 -6.15331 228.321 41 81 86
16.8149 23.3292 209.78 78 157 136
-90.4094 6.42323 228.723 46 70 60
45.1706 55.196 204.538 60 143 128
-1.75469 75.5929 202.62 88 185 158
-57.5625 18.285 224.719 66 93 84
27.4206 18.5277 214.918 104 180 162
-43.2951 99.2652 284.304 240 177 203
-24.1553 7.17576 237.912 46 101 82
-8.96202 46.6651 233.96 115 156 148
20.0058 3.87672 210.232 24 112 126
-79.028 26.8404 227.702 41 53 47
0.127079 62.1305 197.623 61 137 113
-221.345 110.045 404.804 79 66 64
-0.24597 38.7973 219.093 50 129 102
-80.7301 48.7516 216.496 83 127 114
4.75891 -18.9029 243.845 57 142 138
-167.731 64.0628 385.243 185 178 181
-32.3321 -6.48831 224.315 30 60 49
-67.616 38.8123 220.21 55 78 64
-236.228 94.3224 395.861 118 98 97
49.0773 32.1857 210.078 95 174 155
50.8948 -31.2941 276.027 5 62 63
63.3629 14.1258 234.926 49 130 138
-198.925 105.606 397.412 76 59 62
-64.5592 56.0284 243.728 51 62 52
-42.3111 95.6739 282.278 231 186 195
-30.3921 -8.84792 222.239 33 75 64
-16.1433 28.101 258.018 23 43 31
-169.119 75.6524 398.12 176 168 168
-50.4717 54.8796 219.947 67 131 112
44.5852 18.8304 195.742 51 123 131
-7.03374 52.8303 253.76 66 125 104
3.18737 56.3555 194.446 32 119 93
43.8924 37.5356 179.762 101 178 157
-36.8485 31.8441 232.96 35 43 36
59.2883 27.1671 210.48 65 124 109
6.75545 79.4665 178.562 85 135 105
65.8269 29.3216 207 89 158 143
-180.709 34.7848 365.855 47 39 39
7.56627 68.4777 191.341 83 132 118
-62.0906 59.6596 237.589 53 71 58
-58.7371 15.7235 233.186 46 61 53
-9.14963 56.8097 237.252 139 131 124
26.6849 57.5713 189.663 64 142 125
46.0747 68.3379 202.94 49 126 99
39.1861 68.9326 189.436 0 94 57
39.6057 42.7452 211.007 82 162 139
30.0577 62.4102 199.593 13 109 85
-27.5498 -15.3516 229.057 74 115 118
61.8999 26.9944 203.917 82 155 139
-168.397 116.855 414.03 173 168 167
2.75153 -17.9064 244.849 38 128 123
-38.0199 102.242 286.216 251 183 194
54.7843 23.3839 216.579 19 93 89
-171.268 115.32 417.969 111 99 97
-84.2839 32.2738 222.578 68 87 78
-31.6959 -0.414374 231.591 16 32 25
-55.3133 46.2904 226.053 55 70 62
-12.506 25.8533 263.373 23 49 36
62.5954 -6.35885 221.679 4 82 89
-53.833 113.204 366.682 255 201 219
8.35647 48.16 198.558 30 125 98
-97.3788 28.1745 240.292 43 62 53
10.1328 -8.40611 228.431 26 116 123
16.0859 41.1161 190.367 72 163 137
-227.445 88.7031 389.165 131 116 113
12.9429 -25.2731 234.569 38 124 114
48.5094 46.0193 217.47 79 171 152
-228.047 95.944 399.739 129 114 112
-44.733 42.4566 223.681 46 63 52
59.5523 29.5872 194.648 57 132 116
0.178023 74.6699 200.414 79 186 153
-219.556 177.808 547.269 75 54 52
-97.4652 5.42216 228.672 75 108 101
-125.68 37.2818 298.74 162 161 157
-61.5366 41.6982 221.536 82 97 89
3.19787 26.8426 217.103 78 170 141
-45.313 16.0259 232.611 20 45 35
47.358 45.0241 205.7 41 128 108
32.1195 61.2245 200.935 65 160 140
41.2961 57.8099 211.251 64 143 134
61.5146 35.6394 197.449 75 157 138
3.10777 -27.8864 251.512 0 94 80
-5.84873 49.9689 237.345 53 126 104
-21.2515 35.9605 246.065 22 41 32
17.7374 0.501046 216.037 57 85 119
19.0133 70.8739 222.64 69 161 132
-68.9938 -6.47458 212.787 63 119 106
-66.1916 55.1201 237.704 52 66 55
47.3582 17.8536 219.731 23 95 102
-29.8274 24.4651 231.783 50 85 71
-19.7429 -5.41886 228.565 77 125 129
6.66572 -26.1768 241.376 18 103 99
48.9482 43.7967 199.587 48 129 110
0.158057 29.3412 234.125 87 165 141
-27.8666 -10.2973 218.221 62 106 107
-82.713 33.8056 223.425 40 58 51
-70.1704 27.1612 224.41 59 72 64
45.8633 36.2688 180.266 75 154 135
4.98044 -28.5815 250.883 8 99 90
44.7443 50.1882 199.282 70 152 134
-174.453 52.1416 389.785 136 121 119
-199.479 75.6808 390.68 131 116 114
43.2497 51.4915 200.716 68 154 136
24.8397 20.6376 202.858 101 175 157
17.72 30.9039 208.703 98 171 149
-28.6093 37.9737 243.463 40 51 41
-225.28 79.8888 389.778 133 120 118
42.3762 54.4095 199.269 58 141 126
65.6056 27.4806 211.096 48 114 102
-194.543 121.751 409.34 41 27 33
52.0478 -7.38642 214.942 53 146 145
42.8872 49.7856 199.469 70 153 131
1.01575 32.3403 225.226 74 152 128
-26.4866 7.00801 228.519 44 97 83
-62.194 47.9467 225.586 44 55 47
-164.405 41.2087 360.109 149 139 132
-49.9744 98.3085 289.049 254 195 216
-106.705 53.8778 239.917 137 165 165
44.3065 36.0005 180.375 76 158 139
3.07488 81.2777 181.991 86 133 107
59.5398 56.6449 182.513 72 152 135
16.503 -29.8639 232.025 30 125 104
-194.794 123.65 417.491 132 128 147
-5.38556 42.7986 227.839 44 116 93
-260.729 101.668 403.309 64 50 51
-1.32851 55.917 208.075 32 101 74
-78.9358 35.8703 224.998 101 114 106
