ply
format ascii 1.0
element vertex 1680
property float x
property float y
property float z
property uchar red
property uchar green
property uchar blue
end_header
-0 -0 -0 0 255 0
-0 -0 -0 0 255 0
-0 -0 -0 0 255 0
-0 -0 -0 0 255 0
-0 -0 -0 0 255 0
-0 -0 -0 0 255 0
-0 -0 -0 0 255 0
-0 -0 -0 0 255 0
-0 -0 -0 0 255 0
-0 -0 -0 0 255 0
-0 -0 -0 0 255 0
-0 -0 -0 0 255 0
-0 -0 -0 0 255 0
-0 -0 -0 0 255 0
-0 -0 -0 0 255 0
-0 -0 -0 0 255 0
-0 -0 -0 0 255 0
-0 -0 -0 0 255 0
-0 -0 -0 0 255 0
-0 -0 -0 0 255 0
-0 -0 -0 0 255 0
-0 -0 -0 0 255 0
-0 -0 -0 0 255 0
-0 -0 -0 0 255 0
-0 -0 -0 0 255 0
-0 -0 -0 0 255 0
-0 -0 -0 0 255 0
-0 -0 -0 0 255 0
-0 -0 -0 0 255 0
-0 -0 -0 0 255 0
-0 -0 -0 0 255 0
-0 -0 -0 0 255 0
-0 -0 -0 0 255 0
-0 -0 -0 0 255 0
-0 -0 -0 0 255 0
-0 -0 -0 0 255 0
-0 -0 -0 0 255 0
-0 -0 -0 0 255 0
-0 -0 -0 0 255 0
-0 -0 -0 0 255 0
-0 -0 -0 0 255 0
-0 -0 -0 0 255 0
-0 -0 -0 0 255 0
-0 -0 -0 0 255 0
-0 -0 -0 0 255 0
-0 -0 -0 0 255 0
-0 -0 -0 0 255 0
-0 -0 -0 0 255 0
-0 -0 -0 0 255 0
-0 -0 -0 0 255 0
-0 -0 -0 0 255 0
-0 -0 -0 0 255 0
-0 -0 -0 0 255 0
-0 -0 -0 0 255 0
-0 -0 -0 0 255 0
-0 -0 -0 0 255 0
-0 -0 -0 0 255 0
-0 -0 -0 0 255 0
-0 -0 -0 0 255 0
-0 -0 -0 0 255 0
-0 -0 -0 0 255 0
-0 -0 -0 0 255 0
-0 -0 -0 0 255 0
-0 -0 -0 0 255 0
-0 -0 -0 0 255 0
-0 -0 -0 0 255 0
-0 -0 -0 0 255 0
-0 -0 -0 0 255 0
-0 -0 -0 0 255 0
-0 -0 -0 0 255 0
-0 -0 -0 0 255 0
-0 -0 -0 0 255 0
-0 -0 -0 0 255 0
-0 -0 -0 0 255 0
-0 -0 -0 0 255 0
-0 -0 -0 0 255 0
-0 -0 -0 0 255 0
-0 -0 -0 0 255 0
-0 -0 -0 0 255 0
-0 -0 -0 0 255 0
-0 -0 -0 0 255 0
-0 -0 -0 0 255 0
-0 -0 -0 0 255 0
-0 -0 -0 0 255 0
-0 -0 -0 0 255 0
-0 -0 -0 0 255 0
-0 -0 -0 0 255 0
-0 -0 -0 0 255 0
-0 -0 -0 0 255 0
-0 -0 -0 0 255 0
0 0 0 255 0 0
-393 281 380.486 78 82 70
-351 357 324.38 204 161 152
-74 376 470.227 94 92 81
-183 364 268.566 90 89 79
-190 332 300.608 252 222 221
44 279 286.169 160 168 161
-235 400 360.879 138 114 108
-220 276 478.207 71 75 64
-183 376 441.164 77 49 55
-28 -21 269.248 183 197 186
-98 311 351.62 251 228 220
-384 275 263.443 255 226 217
-390 262 297.971 76 68 61
-70 365 352.951 180 161 153
-396 271 483.3 90 64 57
-177 328 257.796 245 215 214
-281 253 366.172 29 41 29
-225 265 259.387 81 86 77
-147 297 341.652 51 75 65
-37 -26 327.045 22 33 25
-446 0 387.68 58 83 73
-421 310 279.423 110 101 91
-433 300 348.19 75 75 63
-58 -36 418.525 134 161 152
-299 292 459.344 47 55 45
-173 355 450.067 251 220 217
-267 305 395.81 155 149 138
-122 324 369.285 175 156 151
-199 358 468.004 98 112 100
-290 409 401.596 137 118 110
-453 319 396.763 88 88 76
-385 321 279.243 85 91 80
-279 412 419.49 125 110 101
9 13 342.228 15 41 28
-10 274 303.837 38 29 25
-341 303 395.908 120 129 119
-485 -82 377.945 43 49 44
-225 405 331.473 255 216 217
-328 389 410.787 104 87 78
-506 -85 439.623 41 36 27
-226 361 276.249 149 163 151
-141 305 266.855 222 199 197
-47 -27 268.775 23 44 35
-403 285 472.151 123 89 83
-178 342 364.602 201 167 161
-20 -29 281.475 49 74 60
-276 329 331.337 137 119 108
-276 366 502.258 216 187 180
34 61 492.423 123 140 131
-32 -50 346.38 211 199 193
-389 291 465.669 60 74 62
-85 373 417.17 106 92 86
-202 332 316.101 57 75 62
-425 23 273.705 18 25 20
-64 -82 482.277 25 68 53
-294 344 302.573 99 81 70
-427 286 315.531 186 155 152
-33 272 343.519 22 30 23
-99 332 270.719 255 222 217
-117 349 283.457 255 230 223
-69 305 278.677 111 99 93
-452 -57 373.207 130 145 137
-431 317 455.954 102 110 99
-101 356 483.143 161 169 162
-274 378 474.855 101 99 88
-111 324 254.528 92 109 95
-203 455 267.803 124 54 60
-263 392 312.179 255 225 219
-60 364 449.479 255 232 228
-210 130 268.621 139 166 156
-658 127 325.532 24 19 21
-273 340 294.241 87 87 75
43 13 389.866 203 193 186
-144 336 255.58 84 89 74
-50 279 264.749 214 211 203
34 73 339.688 126 135 125
-428 258 498.579 80 97 88
-197 273 360.793 254 209 206
-234 129 272.912 119 153 143
-484 -72 491.992 215 212 208
-600 462 310.899 198 193 192
-298 393 273.442 119 109 99
-515 200 298.595 171 185 179
-290 380 446.297 252 218 212
1 277 412.919 60 39 37
-215 259 394.163 81 109 96
-316 -159 447.937 111 119 119
-295 324 375.733 58 67 54
220 212 385.316 42 132 102
-338 386 471.434 216 173 170
-439 289 269.158 117 121 109
-81 344 429.292 123 122 112
-224 420 337.091 95 68 64
-420 323 266.055 240 203 199
-471 -94 478.894 43 55 55
-177 316 490.5 129 155 142
-9 -48 300.477 35 70 56
-419 242 264.908 52 82 69
-77 333 350.665 98 64 58
-402 311 419.856 73 100 84
-379 365 392.532 96 97 88
-41 266 386.692 168 182 176
-221 327 505.045 54 73 58
-44 -57 257.645 127 139 133
-92 300 340.928 70 102 85
-419 -80 291.809 130 155 175
-166 344 421.798 255 219 217
-429 331 392.718 109 103 92
-129 306 344.032 98 130 119
-277 305 380.063 125 146 131
-302 437 262.384 148 127 119
-477 365 478.265 151 172 169
-379 226 475.633 15 45 32
-324 -132 304.779 87 118 111
-83 282 307.685 216 216 210
-325 343 426.107 58 61 52
-487 362 347.757 67 48 45
-15 -57 283.875 27 59 48
-59 17 347.332 79 125 112
46 90 284.98 121 170 154
-133 331 282.083 62 72 60
-8 -15 411.911 61 105 88
-355 -69 268.589 25 41 34
-47 235 490.49 16 24 14
-371 372 286.269 128 137 127
-238 362 325.433 189 183 176
-361 365 473.03 53 46 37
-323 41 503.238 63 89 83
-230 321 384.769 162 176 170
-88 327 299.174 255 212 209
-10 -38 289.118 218 203 200
-184 -155 323.484 79 120 112
-165 361 277.927 198 164 164
-486 39 360.871 43 64 55
-442 345 445.622 126 140 128
-367 336 283.359 156 142 136
-59 248 299.581 50 74 62
35 20 306.808 34 64 51
-67 270 409.739 137 162 152
-142 281 272.574 77 86 76
-144 196 296.42 61 115 98
-304 315 505.913 59 69 57
50 257 324.85 12 20 9
-450 354 289.591 93 106 92
-459 331 319.221 250 208 203
-203 310 436.855 141 165 157
-451 290 308.792 255 218 214
-386 357 264.631 166 134 128
-321 270 304.985 87 117 106
7 189 300.607 63 88 78
-48 -12 281.915 102 153 139
-474 343 265.133 134 73 69
-141 325 361.328 109 129 116
-209 271 365.451 116 133 119
-459 252 420.444 14 37 29
-406 246 292.336 150 182 171
-6 130 342.668 51 77 61
-451 69 363.297 142 153 145
-220 371 355.757 68 84 73
30 265 297.341 119 144 140
-416 343 296.246 177 155 150
-439 181 343.914 69 103 96
-498 139 291.626 49 54 55
-120 296 455.269 97 128 113
-170 300 327.373 132 146 140
-383 -91 343.687 11 20 17
-129 358 333.704 130 135 126
-105 369 300.222 148 169 160
-464 315 315.066 119 105 93
-470 307 442.871 18 26 16
17 254 325.553 89 118 109
-478 12 482.105 12 23 13
-444 307 260.017 209 187 182
-213 451 268.821 155 160 163
-52 -49 259.709 102 148 136
8 55 410.356 168 184 173
-526 -28 278.486 45 59 55
-58 352 298.532 82 72 62
-416 170 329.861 52 83 74
156 330 347.198 61 139 116
-334 352 313.742 63 81 68
-208 94 345.581 19 44 34
0 226 474.463 42 56 45
93 230 431.239 26 110 81
44 79 304.621 93 136 123
-523 172 311.859 123 147 137
-216 413 333.041 173 148 144
-90 364 379.212 255 227 222
-238 330 350.47 81 115 98
-400 354 268.142 162 138 132
-306 238 270.162 131 151 138
-897 288 274.968 176 165 173
-334 376 305.556 71 83 71
3 263 400.115 133 154 145
-213 303 273.102 27 47 34
-59 374 298.854 125 112 104
11 122 418.228 49 86 76
-2 0 430.312 211 214 205
-71 25 264.327 0 12 3
19 20 286.681 27 52 42
-937 287 364.897 159 155 161
-321 -77 490.944 91 126 116
-944 315 378.313 164 157 162
-101 293 301.145 104 141 125
-367 -77 279.523 36 47 44
-394 3 283.605 99 139 128
-63 259 502.499 70 105 91
-81 354 296.699 255 218 218
-304 359 504.47 95 121 107
-217 317 255.851 104 129 119
-466 184 380.335 84 112 106
117 264 304.5 72 186 156
-28 196 354.17 129 159 146
-104 380 339.685 255 226 225
-381 400 394.056 123 132 122
-240 305 453.748 93 135 124
-397 -90 264.154 126 141 167
-185 391 418.159 78 82 77
-858 288 364.979 178 172 177
-905 315 378.138 168 159 162
-396 -31 287.378 91 125 118
-361 62 261.482 33 43 37
-119 306 261.38 217 179 175
-735 290 289.265 185 178 185
-463 174 463.951 60 76 69
-289 293 277.401 102 124 112
-29 -81 416.003 36 95 75
-259 379 460.63 146 128 117
-141 -26 300.493 9 46 36
-452 204 279.175 56 84 71
17 50 482.626 58 84 71
-774 263 438.001 155 149 154
30 45 386.864 54 79 65
-336 233 281.378 83 93 81
-191 382 275.763 120 105 113
-323 370 417.156 94 108 96
-41 60 485.57 48 80 69
-391 310 341.705 95 126 111
64 -283 337.389 56 170 140
-932 303 500.581 166 157 160
-167 181 319.03 66 86 74
-374 259 378.622 52 91 76
-249 368 461.885 93 113 100
-146 158 387.336 124 154 141
-347 334 400.312 45 55 43
-859 302 410.212 70 58 58
-208 -159 261.899 85 129 123
-825 263 405.233 169 166 168
-785 317 326.211 151 146 155
-93 276 339.924 135 162 158
-446 273 415.344 179 205 199
-182 71 446.927 9 24 16
-373 344 268.715 89 76 68
-776 289 325.124 174 167 174
-864 316 316.716 154 148 149
-285 126 385.821 181 193 187
-87 12 277.792 9 45 33
-94 343 359.195 142 128 122
-469 5 326.733 56 89 75
-176 -162 326.912 104 138 132
-178 248 501.547 43 68 58
-804 344 472.84 154 146 156
-825 317 311.105 164 156 167
-128 -1 311.06 54 108 91
-891 304 461.397 177 171 176
-735 306 457.214 83 77 82
-733 264 445.094 156 149 156
-248 389 308.151 128 116 106
-354 191 464.328 78 106 93
-513 -71 311.424 201 189 185
85 41 345.454 76 160 135
38 98 472.754 154 197 184
-134 29 289.338 22 28 23
-483 238 258.438 89 101 95
-132 195 255.463 48 55 48
17 130 395.028 112 160 148
-503 197 268.794 64 115 101
-313 365 286.99 114 134 121
41 32 400.815 26 78 60
-13 187 296.747 101 148 132
-747 318 335.364 182 174 184
-476 -63 391.367 24 42 35
-922 342 303.392 145 134 142
-696 372 362.2 87 83 95
-318 201 294.288 83 108 98
-118 380 349.99 166 158 158
42 -87 450.046 23 32 36
-852 369 299.248 130 126 132
-883 343 291.327 162 155 162
-109 -25 464.615 74 129 114
-192 72 454.058 10 21 13
-362 31 374.33 46 70 60
-472 328 305.724 77 79 67
-814 305 259.978 121 113 120
-336 335 353.393 57 90 76
-165 25 328.992 89 116 106
371 -3 289.43 98 180 157
-256 310 462.544 38 52 40
-332 294 265.873 134 161 152
-420 227 315.387 123 162 154
-693 264 303.995 177 168 181
36 256 435.647 42 36 29
-150 -172 322.959 50 101 93
-394 -102 356.97 23 32 45
-189 -173 464.216 91 133 126
-124 40 369.491 19 35 24
-52 55 444.668 89 127 115
-335 42 436.949 133 174 166
-939 330 401.726 157 147 153
-307 212 363.859 29 46 37
-41 213 346.09 144 164 152
-97 221 255.118 61 96 82
-271 404 254.239 117 94 86
-341 205 413.881 74 117 104
-37 -72 460.151 214 196 189
-129 286 267.479 167 193 180
-231 283 404.805 85 119 108
-318 282 321.975 50 62 50
-775 305 351.492 98 91 96
96 293 450.816 93 229 195
11 285 488.509 150 155 146
-193 405 411.94 99 106 101
-394 47 299.739 46 62 55
-814 370 294.002 134 127 140
-844 343 293.919 161 151 157
-227 248 293.088 96 126 115
-353 260 257.252 76 123 107
188 167 320.485 42 137 110
-161 77 289.517 72 121 107
-268 244 265.777 40 56 45
-194 319 398.337 74 109 99
-658 372 309.108 136 129 144
-52 121 339.507 51 67 56
84 289 302.844 94 189 162
-486 136 377.908 149 174 164
-357 -145 298.942 42 63 54
-704 320 376.112 155 147 157
-106 -200 349.569 93 132 130
-202 296 324.998 83 113 102
-929 368 345.302 126 120 131
-135 -38 413.192 58 91 84
-8 203 405.281 32 66 49
-900 331 390.623 144 138 143
83 265 367.947 48 118 95
-152 55 496.777 110 140 129
-73 216 481.871 61 94 80
-430 359 281.847 92 121 106
-403 201 423.356 99 148 134
214 -15 335.046 55 146 121
-890 369 309.104 121 114 119
-815 291 389.883 173 166 173
-533 171 496.822 88 113 103
-774 370 479.728 99 90 100
-736 371 405.687 138 133 142
-392 383 333.91 255 233 230
-375 249 406.229 119 154 140
-456 263 450.389 92 115 107
-470 162 357.178 135 162 153
-107 115 271.332 35 59 47
-920 356 413.296 88 77 80
-686 345 311.279 135 127 138
-363 153 377.6 47 62 54
-878 357 269.379 145 141 146
-193 110 392.099 63 100 90
-317 352 458.652 79 123 106
-451 366 286.561 129 150 142
-768 361 283.694 84 72 72
-764 345 281.395 137 129 139
-84 226 506.506 108 154 141
-103 272 347.994 99 127 121
-498 121 405.336 116 150 143
-62 329 305.013 154 164 158
-805 358 504.303 56 45 48
-98 -143 313.825 82 125 112
32 284 284.921 116 136 131
-425 213 308.914 67 107 96
95 263 275.02 117 219 191
27 179 256.328 151 145 140
-130 -13 484.971 70 132 116
-81 318 341.092 89 97 87
-525 200 292.781 44 48 43
-518 -46 350.049 45 59 53
-461 292 283.784 85 115 102
-48 20 280.947 23 34 26
-444 144 501.736 128 155 151
-129 377 450.245 247 215 216
-862 331 336.269 131 122 125
-207 217 265.909 149 183 172
-725 345 271.138 129 120 130
-65 36 365.31 73 113 101
3 -12 482.964 224 215 205
-64 -7 403.13 95 146 132
-655 400 462.307 103 95 106
122 250 258.614 56 147 121
-283 55 326.407 23 33 27
-785 332 290.963 85 74 77
-61 315 421.01 133 166 159
-727 359 277.756 56 52 51
-415 212 281.163 45 101 82
-37 7 315.108 185 198 190
-583 431 393.084 65 51 53
-209 361 461.932 75 108 94
155 343 369.045 227 248 233
-183 401 262.975 128 151 146
-156 -142 438.136 41 90 76
-363 4 269.13 118 146 140
-731 279 389.24 169 166 181
-66 160 403.469 72 86 75
-359 143 268.938 38 46 39
-298 182 390.379 57 85 72
-73 58 427.003 84 109 99
-235 226 394.949 123 142 133
-507 395 341.463 201 190 186
-492 -11 453.878 104 147 134
-387 372 462.591 248 222 216
-361 395 424.526 152 167 163
-823 332 507.74 127 116 124
-47 -112 257.162 31 78 69
-705 334 372.84 111 100 108
-12 -140 364.782 4 58 59
-735 387 408.432 82 73 86
29 169 267.169 130 173 160
-843 358 367.202 66 55 57
-165 106 294.899 31 44 36
-61 170 340.067 81 103 91
-315 182 479.961 78 117 102
-205 349 299.628 50 83 68
-80 247 363.93 99 135 123
82 276 326.706 49 127 103
412 -8 298.884 96 169 159
-769 280 295.009 170 161 171
-695 399 447.217 107 97 109
-114 281 254.702 140 171 162
-32 223 456.798 29 45 34
-287 23 407.833 4 19 11
-744 333 303.128 143 131 137
-178 -172 349.762 19 21 22
-342 66 481.61 109 151 140
-685 360 381.88 144 138 149
-692 279 309.209 169 164 166
-175 -27 305.341 62 92 79
-486 325 368.035 108 125 114
199 162 428.824 45 142 116
-211 227 324.36 112 155 140
-126 -28 321.065 1 38 30
-83 78 496.95 72 108 94
-517 -60 282.347 90 121 114
-209 70 452.924 112 142 131
-249 322 358.956 53 88 74
-501 -63 324.195 73 93 88
-458 229 504.271 154 185 178
-342 131 402.543 74 101 91
265 -29 415.413 38 77 75
-478 227 300.16 73 94 86
122 237 292.086 59 131 108
306 -10 318.523 66 131 122
-152 -127 329.388 55 110 95
88 163 343.74 18 94 70
-307 269 351.503 75 118 103
-495 158 350.351 21 34 26
-166 399 502.157 119 104 108
-367 -20 275.863 94 122 116
-180 126 379.242 71 101 88
-222 239 336.961 104 148 135
-436 137 487.308 111 142 135
-65 240 374.901 107 132 122
-373 -85 472.377 123 144 159
-97 -184 368.009 0 22 19
-462 356 464.302 181 165 159
-171 73 499.854 27 59 48
-350 407 296.166 121 154 147
-214 290 390.509 36 58 46
-223 441 473.228 167 139 139
-795 319 266.304 91 79 79
87 299 372.935 76 154 130
-55 -100 293.16 74 136 118
-152 -92 282.023 40 72 61
55 241 374.132 83 121 103
-201 386 264.913 102 107 98
-434 222 316.351 96 136 131
-360 407 503.29 255 232 228
-346 7 497.994 38 49 46
-299 256 503.351 69 87 74
-784 263 284.626 121 109 107
-773 384 499.304 110 106 117
-378 309 373.697 44 67 53
88 -49 299.249 113 191 168
-456 216 337.2 92 126 119
-330 416 499.252 255 219 215
-105 203 330.257 47 68 59
-402 -61 302.572 56 79 75
-825 286 280.433 47 33 34
-33 248 288.806 70 109 94
-103 -2 437.951 13 47 36
-548 46 263.113 41 71 60
-280 117 385.261 87 103 96
-71 -119 262.284 0 10 3
-526 483 406.788 191 178 176
-47 -79 299.318 56 103 87
-506 159 316.032 119 132 124
-355 270 266.868 51 59 52
70 280 296.628 67 131 109
-538 42 424.662 24 49 39
-31 138 276.216 40 66 50
-9 259 427.705 106 136 123
-106 261 491.044 83 108 98
208 213 275.236 74 162 138
-416 151 268.196 53 87 76
-36 -115 338.104 73 122 108
42 141 378.29 134 168 157
-382 53 304.428 104 147 138
225 -42 309.45 18 69 65
12 242 331.553 40 71 56
213 -72 390.235 38 120 121
-254 404 258.664 255 221 217
-370 297 330.935 127 161 150
-474 250 443.699 118 139 131
81 51 311.474 33 100 79
-22 246 291.589 101 123 111
103 274 266.482 41 164 132
41 109 276.333 100 149 133
200 -41 330.308 56 134 103
-115 256 330.206 38 68 55
-475 -3 401.402 13 41 28
-472 105 458.262 50 77 68
-111 177 381.319 72 91 82
-140 -15 290.986 43 89 76
-473 238 456.548 103 124 121
-83 307 399.674 134 153 144
-812 384 434.734 85 77 87
-851 474 318.013 191 98 89
-488 176 471.352 29 26 21
-857 70 297.179 169 166 161
-220 80 468.56 34 59 49
-19 143 458.296 53 84 69
-137 102 418.445 37 54 43
-743 264 299.311 127 115 115
5 -97 299.28 13 25 27
-403 213 395.367 59 98 82
-736 398 419.135 102 94 101
210 -62 321.463 38 115 118
-483 301 374.746 36 53 44
-76 -22 299.402 74 123 107
-368 356 342.826 170 168 160
277 -36 354.287 10 61 64
-353 54 373.951 130 163 156
-221 64 257.374 51 81 68
241 201 271.457 37 118 93
-845 71 316.149 142 139 155
-22 176 343.213 56 86 75
-390 23 453.22 112 136 128
-329 23 467.178 58 87 84
-116 224 333.688 67 93 80
-358 294 432.731 48 65 54
-351 395 348.717 82 108 95
-390 199 289.267 48 94 81
220 147 366.204 50 137 111
-509 132 435.564 104 115 107
-333 -123 255.487 43 76 69
-263 416 380.008 255 224 219
-140 347 409.355 249 220 213
-490 278 421.869 77 101 89
-197 123 476.855 36 53 44
-246 116 405.541 21 38 29
-409 330 281.738 255 222 220
-178 94 438.55 76 110 99
87 22 354.761 75 157 134
-143 72 435.197 122 158 144
-237 79 274.005 35 52 43
-474 136 418.05 81 113 102
-559 501 499.054 73 63 63
-246 179 483.466 79 105 92
-258 277 310.502 80 104 92
-543 165 259.836 186 182 177
-34 237 265.249 88 127 112
17 166 322.9 138 168 157
-45 0 351.705 98 125 115
-359 330 408.84 100 130 117
-307 304 360.283 64 81 70
252 264 269.079 55 119 97
-459 193 340.609 97 126 117
-5 180 289.517 85 110 100
-58 4 368.295 21 32 24
-473 260 416.852 77 94 85
-204 -137 260.991 92 145 132
-61 76 488.136 85 118 104
-256 297 369.999 88 109 94
229 204 351.249 68 162 137
-372 -53 282.21 94 111 132
-368 239 409.402 97 139 128
-320 306 422.601 89 111 99
-236 255 322.428 44 69 59
93 325 358.312 71 198 167
-375 -27 505.655 81 111 100
-89 165 465.874 108 125 114
-439 213 260.297 102 144 137
-472 43 478.702 22 42 30
10 229 363.472 138 141 132
-888 382 503.924 102 95 102
-216 -106 419.636 47 90 75
-849 383 488.086 122 115 128
-335 430 467.644 166 179 171
-926 382 405.639 93 79 90
-491 48 383.13 12 27 23
59 -89 386.798 51 105 98
-652 279 464.116 117 111 128
-471 54 263.792 39 58 49
-349 -139 320.528 67 117 107
-145 179 271.667 96 141 125
-285 186 277.352 67 87 74
199 219 284.031 87 171 147
-294 218 266.871 69 94 84
-203 399 369.446 109 122 114
-510 226 486.747 52 80 74
-31 212 302.858 20 38 25
-520 190 481.901 99 126 116
-45 32 396.989 56 92 80
-98 233 312.76 128 165 155
308 -29 313.155 2 52 52
-157 -110 375.227 48 87 72
-153 66 388.38 14 35 26
-479 171 350.696 66 102 88
-493 204 461.748 66 111 95
-359 310 297.57 74 86 74
-43 291 341.865 230 198 193
-530 -43 358.226 178 166 162
410 -31 449.45 39 103 103
-39 170 417.687 29 45 34
-261 319 265.06 66 84 71
-354 435 442.957 171 168 163
-116 266 263.174 30 62 51
-112 68 337.628 74 106 95
-330 282 289.542 77 104 94
-16 168 295.663 75 112 96
-521 157 257.644 65 95 84
-480 182 496.254 30 61 52
-174 235 390.057 77 116 101
-346 37 313.882 68 115 107
-358 283 329.69 80 103 89
-109 -178 265.471 83 120 112
311 -19 344.294 112 193 184
-152 -21 262.024 39 84 68
-500 54 285.775 38 59 51
-159 386 410.002 249 194 203
-457 18 323.07 53 80 70
-500 314 254.142 45 62 53
-474 125 422.576 43 75 64
-79 -112 307.758 55 108 94
-290 434 346.817 255 219 213
-818 398 484.388 88 75 83
-154 114 359.064 80 112 101
-198 192 367.777 64 83 74
-648 391 289.354 108 93 101
-482 104 498.895 49 72 67
-134 -54 333.704 24 55 46
-520 71 262.754 34 58 50
-361 385 325.338 149 160 152
-353 417 371.136 157 148 144
-154 253 318.593 61 80 71
-398 15 273.72 85 102 98
276 249 314.216 64 131 116
-632 358 452.612 101 86 84
-318 293 274.663 59 79 67
-187 -66 287.732 63 94 85
-399 223 389.514 41 94 80
-210 372 330.666 32 60 47
-57 217 383.622 51 73 61
-660 265 494.859 128 114 125
164 349 367.028 99 168 141
247 279 403.247 73 182 160
-480 77 442.248 35 74 58
208 -50 257.594 8 59 62
-586 63 266.997 111 143 132
-88 237 451.315 120 143 135
-164 249 296.76 114 141 131
447 19 323.337 66 151 129
-359 247 335.459 73 114 99
-23 259 341.539 134 168 158
-292 166 363.432 32 47 39
-244 140 413.633 99 114 106
148 397 254.553 183 181 173
-350 321 434.677 72 91 82
-83 -59 372.449 87 135 123
162 319 341.922 40 133 106
-777 398 432.221 92 82 94
-714 320 377.587 109 91 92
192 -19 293.32 83 177 153
-253 416 477.911 255 224 221
-138 -139 265.855 34 70 58
-166 -44 262.078 47 72 62
-352 177 255.912 32 49 40
145 39 273.568 81 177 153
-858 397 279.591 96 88 95
-203 107 267.233 54 86 75
63 66 270.906 49 111 89
89 -66 329.17 39 118 99
-461 346 268.43 120 91 86
92 275 294.659 87 193 164
-162 -19 295.43 26 75 59
-213 193 371.619 125 144 135
-385 167 354.322 42 57 49
-217 249 390.123 57 84 74
156 58 422.009 72 167 140
-489 95 466.267 27 55 42
-118 108 426.111 80 100 88
36 184 435.368 101 114 106
-493 234 500.455 91 125 118
-182 263 472.803 50 80 67
-492 110 359.435 96 123 114
-426 155 425.58 65 108 99
-229 73 412.94 99 133 122
-151 84 458.919 42 83 68
85 -39 298.845 98 173 151
85 84 342.47 75 152 131
-939 395 310.226 91 82 92
-898 396 288.527 101 91 97
12 29 265.026 27 60 46
-508 72 276.511 101 126 116
-430 76 436.466 96 113 104
-635 334 501.61 107 98 111
-535 -17 321.293 84 103 94
-230 384 358.874 74 120 101
-304 157 386.616 92 111 102
64 316 458.989 135 210 194
98 39 396.684 15 93 69
-648 130 506.548 42 30 28
-192 -162 287.448 15 13 13
-190 449 306.477 114 57 56
-526 -54 385.477 184 173 169
-255 213 361.241 122 142 129
405 302 255.549 13 100 67
-642 311 425.403 172 170 189
-273 210 319.194 53 59 48
-489 0 502.239 36 57 48
-333 -108 299.883 84 128 115
-43 -41 289.129 34 61 51
-100 -58 262.143 65 108 95
-231 -127 392.383 60 96 84
476 223 415.068 40 125 103
-164 325 271.557 139 159 154
-501 288 257.302 39 50 42
224 -21 274.116 106 186 163
81 31 264.602 31 111 88
-10 235 261.485 31 67 53
-147 -52 259.521 49 76 67
181 300 294.575 61 204 171
-794 379 450.363 76 58 59
-160 -85 426.513 34 58 48
1 110 299.801 22 48 34
19 185 314.068 188 180 173
144 81 269.842 81 183 155
219 456 397.601 242 252 240
-455 -76 309.471 137 153 159
-498 173 382.065 63 84 75
-142 -125 264.473 23 56 42
-119 185 281.304 102 144 133
-395 246 479.451 129 153 143
-322 190 311.974 105 143 131
-393 60 390.737 63 87 77
-275 265 459.194 31 56 46
88 -78 258.752 35 100 98
230 221 305.595 61 149 125
-703 386 394.983 76 64 60
411 311 362.953 43 105 81
-157 189 263.89 24 33 23
-23 30 272.538 12 27 19
-496 32 283.671 20 39 30
-386 -23 304.773 40 57 46
-208 57 453.549 7 18 10
-467 365 453.581 151 117 118
59 -61 290.052 78 151 129
-20 235 491.14 37 54 45
-581 391 502.923 75 67 67
-152 145 283.64 37 51 40
-396 72 374.459 65 90 80
-4 250 282.07 39 76 60
-338 -3 306.879 71 100 91
-205 36 482.153 70 94 84
15 153 296.154 74 129 110
-131 83 415.325 24 37 29
-342 263 314.823 72 97 87
-581 74 284.782 149 170 162
-331 269 289.883 33 68 58
-790 475 270.437 199 107 102
-209 238 313.311 69 118 102
-498 86 426.302 118 148 143
-19 211 348.785 70 88 75
-314 248 272.855 50 78 65
-509 214 476.433 112 156 143
211 468 276.733 213 219 202
-110 126 313.053 41 78 62
-159 1 420.822 88 130 113
-122 -183 397.218 0 14 11
298 -29 438.061 48 94 95
-124 50 505.763 27 49 37
-36 190 434.621 29 70 55
-67 186 274.98 51 75 63
-156 179 307.506 51 68 57
-398 161 259.088 113 141 135
-784 370 259.658 67 54 56
-418 35 268.714 23 30 25
-190 159 292.657 35 46 38
-509 -23 301.505 84 111 102
-448 192 496.738 117 142 138
-463 -46 340.394 40 74 63
493 9 298.842 56 137 122
-508 82 439.979 69 94 84
-187 171 302.729 105 130 120
-158 -52 388.84 59 95 83
-71 47 315.255 37 69 58
-567 63 351.579 74 112 100
74 -47 334.531 102 182 159
-616 400 424.439 79 69 82
-127 213 325.607 97 114 103
-315 427 483.37 122 132 119
-120 129 326.397 46 81 67
-577 55 309.938 126 156 145
-818 273 462.718 130 119 121
-373 203 365.639 117 143 130
-808 105 269.678 122 109 163
-62 150 500.238 34 52 39
-161 138 294.875 104 121 112
94 216 302.266 66 145 118
-502 21 332.473 61 78 67
-125 -133 340.681 29 59 46
-523 237 278.247 131 132 130
150 192 347.988 26 110 85
-126 144 256.633 42 56 45
-833 66 427.48 94 81 113
-191 149 269.843 89 106 97
-458 376 311.053 233 206 202
154 -114 366.757 98 138 156
47 47 415.7 47 96 74
-88 188 262.834 57 79 67
-663 390 267.861 72 61 64
-496 303 428.459 117 128 118
-318 23 266.568 60 84 74
-76 -92 311.727 32 75 64
-236 268 451.033 59 82 68
-342 222 300.939 35 43 36
-643 321 375.897 107 100 103
-517 105 436.417 107 151 138
-99 168 255.847 83 111 98
-411 195 313.435 101 137 125
-74 7 307.595 21 34 26
56 -76 269.316 53 132 113
12 99 334.63 34 66 55
-432 -25 370.144 144 156 150
-635 348 389.484 93 85 86
-331 315 355.675 41 59 46
-283 218 294.905 49 65 54
-65 198 501.496 26 51 37
-304 416 348.092 100 104 92
-342 401 415.909 220 185 181
-350 216 382.023 44 74 61
-89 -115 261.687 42 85 70
209 141 489.273 131 221 192
-189 -7 306.678 99 141 124
-494 13 372.347 42 57 49
-311 407 362.589 255 226 221
425 -36 408.365 26 95 114
-198 59 423.104 0 10 4
-206 254 373.338 129 168 160
65 -255 376.779 41 226 186
-536 85 270.697 60 91 82
240 212 383.685 64 151 125
-592 275 261.101 168 156 156
-377 383 275.714 128 139 129
86 149 297.417 65 149 124
-307 128 288.437 105 124 115
528 54 462.96 187 182 179
-179 -99 431.169 30 64 53
-248 277 287.277 111 138 128
-28 -127 355.598 64 122 117
-361 -29 364.014 0 10 7
-652 293 409.433 124 110 116
-172 277 436.401 72 94 82
176 279 464.659 36 99 73
-266 70 274.506 96 112 105
-86 259 258.648 118 159 144
-365 432 339.103 255 217 212
-757 379 286.618 85 73 73
-312 -126 409.434 63 100 90
-457 79 475.853 31 52 43
74 -274 494.915 30 152 122
424 337 448.442 53 140 106
-336 15 336.812 65 93 87
-408 71 324.413 21 40 31
-444 130 292.041 48 75 65
-94 179 469.536 62 79 68
-574 480 344.73 131 116 113
128 -86 418.614 80 114 144
-532 60 326.672 31 75 62
3 -120 299.121 74 136 124
60 328 404.787 142 200 182
-243 288 398.357 137 171 160
286 237 257.176 130 219 193
-170 84 421.364 25 77 60
252 -28 274.019 71 144 128
11 68 440.418 33 54 45
-78 199 285.269 57 71 59
-637 131 342.634 126 114 114
-426 144 294.162 120 157 149
107 -92 288.163 22 84 100
-9 -101 339.876 45 110 95
-71 137 385.394 63 87 75
-94 144 257.367 31 51 39
-108 -190 360.647 2 17 19
-529 505 315.303 67 45 47
-499 270 424.572 166 185 182
280 -4 312.365 9 92 70
-406 81 335.395 21 35 29
270 317 316.769 100 207 181
86 126 507.941 69 150 125
-441 78 266.003 44 59 51
-305 56 289.149 39 59 47
-622 386 384.688 68 53 57
-466 113 457.884 2 30 17
-358 -132 317.86 37 80 67
-465 147 297.144 17 38 29
-376 -41 447.753 11 21 15
-170 -74 398.351 81 105 97
285 -29 482.843 13 49 43
89 -91 347.343 48 119 123
-488 148 261.817 51 78 68
476 4 256.451 54 131 117
-441 362 495.679 255 217 219
-85 -127 274.768 61 98 94
493 -2 362.296 77 156 142
264 246 469.919 67 150 128
-186 439 264.316 220 136 140
-95 -133 346.19 21 59 47
-487 65 306.815 99 138 123
-16 155 493.156 61 98 82
-157 201 261.815 24 33 23
-131 18 286.119 59 79 67
-228 213 267.685 53 74 65
-798 368 296.678 41 30 33
-257 31 261.895 94 121 111
276 239 275.595 55 141 117
-152 265 260.491 106 138 127
-154 312 300.824 83 126 115
-621 184 343.955 186 174 172
-404 36 351.473 63 84 76
76 -233 413.552 34 139 120
-257 81 461.116 21 27 22
-305 -134 295.962 33 51 44
-499 360 333.926 151 130 128
361 227 396.992 47 142 122
541 251 323.462 58 129 109
-321 172 287.146 65 104 89
-119 207 381.243 44 63 54
-837 322 411.738 86 74 68
-7 -127 267.801 46 106 98
292 -212 438.183 22 111 108
-86 -93 329.663 74 133 118
399 1 274.848 25 78 68
-426 167 258.379 122 160 154
299 -40 452.394 29 104 113
406 221 290.394 80 172 153
-443 103 486.934 29 45 38
-365 318 376.155 88 107 98
488 100 399.424 110 177 162
-94 201 430.101 54 78 68
297 -3 300.801 88 170 148
-463 133 300.607 57 82 72
-375 418 470.241 252 217 213
-102 391 353.661 213 163 173
41 130 426.4 87 151 132
319 -13 458.555 26 79 92
-816 349 392.207 73 60 58
-336 -149 303.035 97 116 131
-716 380 339.64 92 80 78
-108 415 293.28 176 172 171
-470 201 388.494 91 126 112
233 124 401.948 94 172 148
-314 158 270.22 52 68 57
-170 437 263.845 179 126 165
93 336 415.772 68 181 154
-460 51 384.265 17 34 25
-264 348 256.91 79 91 79
-557 69 401.665 117 146 137
-788 114 290.647 70 53 126
-523 473 381.53 187 182 179
10 -111 336.502 44 78 94
77 92 353.047 88 165 144
-470 378 394.408 255 212 211
-111 -57 387.605 17 28 20
72 119 474.449 74 157 132
443 29 428.913 16 81 65
99 -77 312.051 39 96 93
-874 300 433.336 134 118 119
228 114 279.895 74 162 139
75 59 271.68 28 81 61
25 155 354.434 89 148 133
-492 214 318.994 79 132 118
-95 211 443.432 15 32 23
307 2 302.843 98 176 153
-112 -161 330.188 24 70 58
-165 -32 376.677 89 134 125
-340 174 327.895 51 81 70
-605 231 355.782 184 172 172
-145 43 484.617 81 116 106
-419 83 356.493 74 90 83
-407 123 341.407 16 32 21
227 173 477.381 66 166 138
-475 215 315.38 54 96 85
73 -243 418.933 16 105 102
1 100 367.555 32 61 46
461 46 303.776 56 133 125
167 268 263.457 25 99 73
286 208 413.659 76 161 139
-68 -131 501.379 65 118 105
-344 -36 294.134 2 16 10
-127 172 503.624 96 142 130
-251 98 400.455 23 34 24
523 269 296.737 141 167 153
-504 9 337.29 91 94 85
120 296 288.703 56 143 117
-278 147 288.472 60 75 67
-228 453 401.161 173 135 135
-54 198 259.078 42 64 52
205 -247 300.759 16 119 98
-83 175 365.625 46 60 49
-142 92 415.644 66 105 90
-463 31 412.403 42 61 52
-263 100 390.998 48 54 49
-536 185 379.766 149 145 140
-21 -112 482.372 12 58 46
61 339 412.572 114 157 144
-277 275 342.494 52 71 62
-476 89 379.815 64 91 75
-838 335 417.744 84 69 66
-502 -4 395.356 13 37 27
-908 293 372.892 85 68 65
-522 267 364.16 178 173 174
-106 136 360.201 39 81 63
-396 139 380.8 76 94 87
-146 385 374.119 251 188 197
-633 153 356.553 188 176 174
-215 210 317.034 129 153 145
-334 188 280.873 74 115 100
84 -102 341.588 26 96 120
-229 335 423.566 41 66 52
301 -218 298.85 0 73 68
238 -14 442.883 65 144 125
-517 -1 272.093 45 66 57
73 254 322.575 58 114 93
85 365 427.853 87 204 179
195 263 270.1 47 128 103
-276 102 331.71 19 26 21
373 93 280.525 107 183 159
91 204 489.076 68 146 122
-226 -2 264.633 62 73 65
158 295 277.26 52 196 161
-584 379 491.405 110 96 90
432 346 254.615 35 106 79
-155 -33 319.579 77 121 114
-373 -9 282.953 30 66 54
438 -12 288.476 77 156 145
167 286 285.294 44 121 94
-948 292 380.91 77 65 65
-626 396 308.32 59 45 46
-124 97 440.42 41 52 44
-279 45 325.501 50 80 69
-225 89 406.028 62 89 79
-526 516 366.389 108 87 85
265 -50 328.335 23 72 94
-577 491 311.45 51 34 37
78 135 303.689 77 153 129
-80 118 438.699 62 79 70
399 13 396.123 19 75 62
213 -41 316.712 72 167 152
63 110 320.707 12 79 58
526 33 272.878 157 172 175
-545 384 258.678 130 111 106
-323 324 256.766 67 87 74
-796 106 425.399 97 88 161
-92 57 260.603 29 46 37
-918 301 479.4 91 73 72
-256 197 265.548 47 51 45
-342 -103 446.737 41 79 67
290 -18 276.387 43 114 94
-205 490 421.582 234 143 139
354 270 435.821 41 209 173
117 -270 431.985 20 116 106
-486 260 258.265 63 79 72
-171 -107 497.475 23 53 42
127 -278 437.09 34 130 113
-11 -114 320.103 54 116 104
80 336 365.003 92 194 166
-317 54 260.676 28 45 36
55 116 284.586 21 94 72
229 -32 419.961 67 136 121
-618 200 286.356 193 181 181
-481 203 361.736 62 98 84
-155 275 290.05 126 155 146
-29 151 302.174 34 60 46
-160 239 279.558 49 65 54
-230 54 317.359 24 48 38
-329 2 461.953 30 47 38
-836 302 254.069 117 103 97
-152 -8 328.101 27 49 37
156 71 405.354 0 68 43
-150 -162 309.184 70 122 112
-484 289 486.071 55 88 74
119 224 312.786 15 77 53
-359 -93 297.618 38 74 74
97 -99 263.846 37 100 114
-833 377 325.15 106 92 94
-549 145 372.803 139 130 121
256 253 359.44 42 107 86
148 295 388.303 75 213 179
-747 379 440.196 66 54 54
-275 134 262.138 30 41 31
-375 2 291.498 57 105 87
177 269 407.824 64 138 112
-383 340 384.195 69 87 74
-520 54 323.598 80 101 92
409 14 440.289 78 158 141
-627 374 480.235 83 67 68
165 336 416.793 198 213 199
459 -16 349.162 71 161 148
-49 177 356.612 111 133 121
1 -136 358.915 52 112 111
81 197 261.749 83 153 130
-567 51 323.857 51 94 81
-738 350 282.246 100 85 82
-95 -107 330.864 64 113 99
-212 156 350.404 84 97 89
130 367 392.869 97 181 153
384 95 493.836 105 187 165
-268 53 417.56 32 40 33
-787 388 396.644 62 57 56
400 25 309.299 85 160 139
57 126 330.107 49 133 108
127 204 334.956 65 153 130
-876 321 412.211 69 56 54
-79 -76 464.635 54 92 80
-50 41 292.187 83 126 113
-285 198 371.098 39 55 44
-308 -91 301.337 32 64 53
458 -151 354.346 64 144 143
-516 43 293.257 26 49 41
387 291 444.444 12 92 61
-815 78 370.831 67 60 95
472 -80 420.505 49 128 117
-237 150 354.606 34 45 35
-18 -127 436.316 62 120 115
-331 160 373.788 45 65 53
-498 -29 258.673 104 137 130
-419 132 387.551 37 61 49
-142 112 318.843 69 103 92
-514 -14 260.108 39 69 58
-206 -29 415.757 59 80 71
71 237 322.888 47 87 69
396 281 272.697 55 131 97
137 -284 481.398 12 100 86
57 168 309.734 55 129 105
-345 -120 328.935 59 104 95
-86 137 500.414 125 149 137
75 -222 434.854 23 123 111
151 -251 292.954 25 140 113
275 223 269.962 49 138 112
-188 -26 283.079 44 71 61
505 -45 346.991 55 138 116
-14 22 292.156 27 44 35
-355 166 296.586 80 105 95
233 289 354.364 46 149 121
-587 233 259.861 128 116 112
-275 171 299.098 48 63 55
-478 148 358.383 41 65 55
-545 155 287.551 116 113 108
-196 178 301.025 42 59 50
-470 -33 300.208 59 99 88
-163 282 261.43 65 108 95
136 -24 334.117 72 96 156
-385 77 307.669 75 91 84
-261 185 479.387 49 69 57
-883 295 262.575 112 100 94
-439 -70 477.031 37 72 75
-321 236 349.671 95 114 105
-263 170 320.774 85 109 97
-726 377 339.91 93 82 74
-521 117 379.791 127 129 123
471 -7 278.324 60 132 119
-575 413 476.943 152 146 151
220 126 319.464 64 153 127
455 -90 371.646 40 109 124
-166 264 311.103 60 93 79
466 -67 339.192 66 152 140
-344 115 457.414 6 13 6
-393 341 321.36 60 96 80
146 204 288.166 47 139 110
152 363 364.474 81 140 112
-305 -111 287.237 26 29 27
5 147 276.797 33 79 60
-128 403 346.37 246 185 219
190 -134 334.862 26 56 81
-406 56 350.266 66 73 68
138 262 280.189 55 141 117
64 -223 406.953 39 170 150
-447 113 272.569 60 84 74
-827 388 434.306 64 58 63
62 353 501.138 114 168 151
-499 223 281.373 63 119 106
54 73 282.325 38 103 81
65 297 342.196 101 188 168
-852 330 311.855 129 117 111
-757 323 355.577 111 102 98
-365 224 264.214 64 97 82
-24 121 334.137 41 61 48
25 106 355.717 19 56 40
-143 233 356.637 100 125 111
-125 73 274.64 82 120 108
-246 203 378.549 60 75 67
-322 -101 317.505 34 62 49
-706 356 402.257 159 141 140
46 -107 321.747 53 84 115
-90 -83 316.538 28 67 51
-257 356 382.545 67 87 75
359 133 427.775 92 174 151
197 252 297.599 47 138 112
-234 190 277.86 57 70 62
510 242 481.08 238 255 246
147 -287 438.444 21 103 91
-317 129 364.369 46 67 58
55 -17 331.334 168 204 188
-332 124 474.419 91 116 106
121 -16 266.407 14 38 90
418 322 263.26 2 131 92
449 -20 320.336 54 137 129
-493 334 264.76 148 129 124
-390 -8 420.619 66 106 95
-434 -57 261.161 73 100 91
493 -13 343.084 57 140 125
407 -108 467.72 52 138 144
-41 -125 310.065 59 115 104
350 17 257.36 103 187 162
-423 108 315.229 101 126 116
84 -273 263.66 22 133 113
83 -122 277.323 35 113 129
-168 201 319.97 63 80 67
437 8 263.619 28 101 91
230 145 272.145 90 181 155
233 267 313.524 48 128 97
-312 327 316.621 72 89 76
164 -123 269.821 20 36 119
-128 114 323.193 75 99 89
-26 89 353.421 49 64 56
82 116 269.15 74 147 125
-170 120 292.961 54 65 55
-170 -64 395.224 4 20 13
182 219 446.882 58 134 110
340 22 306.129 126 201 179
462 109 463.858 91 168 147
-32 110 413.254 33 46 38
-946 377 272.182 60 46 47
-147 21 409.137 43 77 66
398 294 254.445 69 191 151
-510 279 430.733 130 127 122
-247 221 280.435 85 102 91
-233 106 320.692 36 76 64
-589 288 292.676 165 157 157
-226 151 404.082 56 70 58
149 -142 305.759 30 115 137
-55 92 279.161 32 46 35
444 -29 427.02 40 112 124
-562 489 429.915 89 81 81
-801 330 258.387 146 129 126
-105 188 378.632 42 59 46
269 -3 491.313 96 185 166
89 355 439.779 77 193 164
-948 388 426.204 102 95 102
462 121 377.028 91 165 147
-295 364 260.057 103 129 113
-37 316 315.906 252 210 211
330 288 284.327 0 103 67
-839 388 376.227 74 66 67
-50 103 441.958 33 47 36
-232 159 271.668 29 38 28
-165 -96 449.683 56 92 78
-828 398 422.826 60 49 51
-544 64 281.843 94 105 95
148 374 350.405 91 151 121
259 283 431.14 71 151 144
-190 198 416.071 53 70 59
479 235 354.466 90 172 153
-780 356 261.34 127 108 105
-218 -147 438.444 43 61 54
-302 -100 358.433 39 73 63
-121 158 256.389 60 76 65
-534 72 274.877 109 141 130
355 8 257.777 95 175 152
-880 375 409.206 80 66 67
-884 327 445.561 122 107 104
388 8 393.456 74 135 115
-602 246 423.035 181 167 168
-156 125 295.201 24 35 25
483 26 292.501 54 131 110
160 -185 416.1 4 73 63
-588 265 317.381 132 120 116
322 231 334.863 62 139 131
-325 149 378 69 94 84
225 -184 288.334 16 92 81
471 -158 263.67 52 139 135
-349 152 363.708 66 86 74
46 203 305.508 94 149 132
148 -194 369.103 22 106 112
-295 112 354.555 53 59 54
481 -97 369.364 49 135 125
483 -79 480.562 72 155 147
429 38 298.686 17 96 75
-915 321 317.349 67 53 47
79 -59 503.011 112 187 166
-294 -4 321.404 28 35 30
251 -16 373.415 98 180 158
143 -276 254.296 18 103 88
-55 32 376.19 47 79 68
19 86 419.345 45 72 62
314 16 329.522 99 176 155
-133 227 302.946 45 54 44
-360 -40 408.493 21 44 36
-177 158 340.697 45 61 50
-433 109 316.689 38 63 53
-438 170 380.92 132 169 165
-62 -139 273.99 27 76 62
-578 318 378.868 130 112 113
165 -241 263.024 21 115 91
-361 75 290.045 20 24 18
-866 348 353.766 61 47 48
454 35 357.296 88 167 148
114 -258 277.413 21 110 101
-373 110 298.754 52 66 60
448 -99 303.12 33 111 118
-725 271 440.179 131 119 117
-563 244 456.966 133 122 118
501 221 300.109 30 114 96
390 196 322.009 73 159 135
138 -247 487.359 19 93 87
203 27 465.184 98 178 155
-235 96 468.542 55 90 76
449 -8 450.165 43 118 110
-12 88 313.97 26 45 36
127 216 419.925 57 148 125
-200 -47 316.552 9 22 14
-443 93 256.87 24 40 29
86 -221 338.597 13 104 89
-20 81 404.852 34 55 46
142 365 423.085 79 182 145
201 -222 368.107 41 124 122
-601 221 267.707 127 114 116
473 -180 294.589 36 122 112
240 -30 278.732 70 143 127
-30 -158 376.98 47 94 92
452 249 405.606 108 217 191
148 154 315.69 52 141 115
-115 147 316.83 44 64 51
448 206 364.461 46 138 119
73 -86 444.213 29 60 63
-341 160 309.091 94 116 104
412 49 285.651 87 166 147
56 139 339.773 80 162 139
-247 234 431.762 38 46 36
-140 7 333.43 46 86 74
-111 242 435.127 78 107 98
150 -206 294.938 33 114 122
-893 321 399.821 108 94 88
121 194 336.595 80 171 146
421 20 277.724 48 114 95
-121 -168 322.811 66 108 101
241 16 310.712 12 102 79
-20 8 320.619 45 63 56
-254 156 398.039 32 41 31
178 209 270.358 61 145 120
74 -113 447.225 33 106 114
-243 162 267.203 44 52 42
-243 343 314.579 50 73 59
-32 81 451.211 55 71 60
-80 293 432.186 149 173 163
178 421 261.258 95 140 113
-470 -17 293.39 48 89 74
-241 18 254.082 46 64 57
-476 -53 363 51 78 68
-416 65 333.226 40 49 39
-157 36 452.878 50 78 65
483 -69 421.226 63 138 130
-80 -47 282.892 92 136 123
47 175 312.338 66 131 110
142 -103 420.524 48 82 118
61 267 282.654 67 124 103
450 -159 359.456 18 101 102
-462 276 301.421 53 77 65
-326 -21 333.591 22 46 38
-462 100 294.05 29 51 39
-792 296 401.802 152 135 132
-75 -139 294.295 41 81 86
202 17 258.844 78 157 136
-446 -39 444.959 46 70 60
400 206 262.211 60 143 128
114 359 266.44 88 185 158
-252 18 378.037 66 93 84
261 -18 336.989 104 180 162
-117 410 258.238 240 177 203
-58 -60 467.842 46 101 82
46 160 467.216 115 156 148
213 -106 268.204 24 112 126
-372 77 271.345 41 53 47
123 277 299.936 61 137 113
-757 397 308.558 79 66 64
99 117 309.781 50 129 102
-386 214 319.51 83 127 114
94 -215 279.29 57 142 138
-591 220 421.64 185 178 181
-113 -140 255.22 30 60 49
-307 146 399.896 55 78 64
-832 349 281.162 118 98 97
405 58 344.114 95 174 155
310 -274 302.616 5 62 63
444 -56 357.774 49 130 138
-684 380 289.895 76 59 62
-263 230 477.245 51 62 52
-114 394 279.755 231 186 195
-103 -156 332.27 33 75 64
-6 53 296.479 23 43 31
-578 258 427.24 176 168 168
-197 235 293.743 67 131 112
393 -25 305.174 51 123 131
54 183 275.03 66 125 104
142 241 262.2 32 119 93
424 104 491.918 101 178 157
-121 87 317.373 35 43 36
465 22 289.449 65 124 109
189 415 307.154 85 135 105
513 33 254.434 89 158 143
-677 115 308.936 47 39 39
179 322 499.823 83 132 118
-252 254 271.736 53 71 58
-254 3 412.985 46 61 53
48 216 363.258 139 131 124
302 242 399.878 64 142 125
414 290 298.105 49 126 99
391 312 388.911 0 94 57
350 127 255.467 82 162 139
314 263 255.692 13 109 85
-87 -192 428.89 74 115 118
493 20 362.224 82 155 139
-547 400 317.487 173 168 167
83 -208 480.901 38 128 123
-89 420 296.808 251 183 194
426 0 260.381 19 93 89
-554 392 291.919 111 99 97
-407 113 486.991 68 87 78
-105 -102 445.969 16 32 25
-226 182 471.656 55 70 62
12 39 325.106 23 49 36
452 -180 300.398 4 82 89
-140 393 341.931 255 201 219
169 182 300.424 30 125 98
-462 89 275.457 43 62 53
136 -167 282.605 26 116 123
223 137 264.679 72 163 137
-811 330 313.773 131 116 113
142 -261 481.452 38 124 114
397 140 266.855 79 171 152
-794 350 413.789 129 114 112
-166 156 314.569 46 63 52
497 39 345.81 57 132 116
127 355 425.313 79 186 153
-573 501 401.564 75 54 52
-488 -42 405.385 75 108 101
-527 128 282.749 162 161 157
-268 160 277.283 82 97 89
116 44 271.852 78 170 141
-177 -1 278.066 20 45 35
407 140 303.652 41 128 108
325 253 368.234 65 160 140
367 219 324.216 64 143 134
507 77 330.076 75 157 138
79 -258 272.916 0 94 80
64 176 362.731 53 126 104
-30 100 474.118 22 41 32
193 -123 313.651 57 85 119
226 298 324.105 69 161 132
-342 -130 289.957 63 119 106
-277 230 392 52 66 55
375 -30 296.998 23 95 102
-84 42 257.161 50 85 71
-38 -137 430.996 77 125 129
103 -258 286.148 18 103 99
426 135 262.741 48 129 110
91 57 275.461 87 165 141
-89 -168 281.503 62 106 107
-396 121 407.579 40 58 51
-323 76 289.035 59 72 64
436 94 362.233 75 154 135
89 -263 383.734 8 99 90
403 178 420.425 70 152 134
-615 174 258.807 136 121 119
-704 271 445.086 131 116 114
392 186 465.486 68 154 136
258 -4 293.212 101 175 157
212 64 424.921 98 171 149
-70 115 295.946 40 51 41
-804 295 331.967 133 120 118
390 206 357.069 58 141 126
503 21 428.562 48 114 102
-648 429 319.036 41 27 33
399 -186 303.999 53 146 145
391 176 386.441 70 153 131
101 76 293.447 74 152 128
-72 -62 275.458 44 97 83
-266 195 288.721 44 55 47
-616 138 326.553 149 139 132
-149 403 441.701 254 195 216
-505 238 444.493 137 165 165
425 93 353.45 76 158 139
162 424 460.171 86 133 107
535 226 296.792 72 152 135
162 -291 474.223 30 125 104
-638 429 292.602 132 128 147
67 139 257.752 44 116 93
-910 378 408.632 64 50 51
105 229 289.815 32 101 74
-371 131 421.077 101 114 106
-424 -63 417.959 44 62 55
315 222 256.158 89 170 151
395 -105 294.898 38 122 134
499 83 343.008 84 165 146
328 85 418.8 108 187 168
205 6 276.524 97 179 156
411 171 469.822 90 172 153
210 37 296.85 94 176 153
474 -147 409.361 56 140 128
133 -231 495.02 6 90 86
-19 43 447.353 21 36 28
213 279 351.997 34 191 154
138 -35 309.813 32 47 126
-209 -126 452.149 21 45 35
-235 -117 289.686 30 56 43
14 298 337.59 248 203 200
-94 43 260.479 13 32 23
332 -12 313 8 57 49
466 -94 316.343 70 158 145
470 -23 267.624 52 124 111
214 268 456.553 44 91 69
139 355 290.955 75 210 170
111 -279 396.544 21 120 110
101 190 478.073 84 162 138
-200 24 453.577 21 36 28
176 472 395.172 115 145 126
-414 101 273.524 29 40 32
447 -82 424.723 74 160 150
-20 -155 329.557 76 119 134
155 -33 442.989 42 86 87
-172 423 452.024 161 149 169
101 88 477.135 57 140 115
227 64 331.976 100 172 149
512 66 341.904 79 158 137
-169 -117 325.688 72 115 100
157 281 347.382 44 119 91
238 -191 254.332 21 104 105
287 473 437.519 98 165 126
527 239 286.303 59 141 119
-587 243 365.791 136 124 120
393 123 400.375 103 182 161
355 321 403.589 38 142 111
342 143 305.44 68 143 121
127 43 316.233 88 178 149
-21 108 264.142 56 81 67
324 -272 324.1 27 135 152
99 107 470.839 44 125 100
-718 402 426.998 78 67 63
-457 -34 280.939 55 82 72
217 78 300.526 69 153 128
-564 310 454.291 139 122 119
489 213 490.79 72 161 142
429 83 486.332 109 181 158
447 46 275.647 71 153 131
-796 397 283.727 65 57 57
504 -19 314.624 68 145 131
478 -57 459.924 45 123 112
-548 410 413.196 189 181 181
213 105 267.707 59 142 117
-325 138 256.2 53 74 65
343 231 277.175 69 156 142
384 324 394.856 50 147 120
365 143 254.443 67 152 130
-898 349 479.746 63 51 49
494 -126 312.312 78 147 137
