ply
format ascii 1.0
element vertex 1680
property float x
property float y
property float z
property uchar red
property uchar green
property uchar blue
end_header
-0 -0 -0 0 255 0
-0 -0 -0 0 255 0
-0 -0 -0 0 255 0
-0 -0 -0 0 255 0
-0 -0 -0 0 255 0
-0 -0 -0 0 255 0
-0 -0 -0 0 255 0
-0 -0 -0 0 255 0
-0 -0 -0 0 255 0
-0 -0 -0 0 255 0
-0 -0 -0 0 255 0
-0 -0 -0 0 255 0
-0 -0 -0 0 255 0
-0 -0 -0 0 255 0
-0 -0 -0 0 255 0
-0 -0 -0 0 255 0
-0 -0 -0 0 255 0
-0 -0 -0 0 255 0
-0 -0 -0 0 255 0
-0 -0 -0 0 255 0
-0 -0 -0 0 255 0
-0 -0 -0 0 255 0
-0 -0 -0 0 255 0
-0 -0 -0 0 255 0
-0 -0 -0 0 255 0
-0 -0 -0 0 255 0
-0 -0 -0 0 255 0
-0 -0 -0 0 255 0
-0 -0 -0 0 255 0
-0 -0 -0 0 255 0
-0 -0 -0 0 255 0
-0 -0 -0 0 255 0
-0 -0 -0 0 255 0
-0 -0 -0 0 255 0
-0 -0 -0 0 255 0
-0 -0 -0 0 255 0
-0 -0 -0 0 255 0
-0 -0 -0 0 255 0
-0 -0 -0 0 255 0
-0 -0 -0 0 255 0
-0 -0 -0 0 255 0
-0 -0 -0 0 255 0
-0 -0 -0 0 255 0
-0 -0 -0 0 255 0
-0 -0 -0 0 255 0
-0 -0 -0 0 255 0
-0 -0 -0 0 255 0
-0 -0 -0 0 255 0
-0 -0 -0 0 255 0
-0 -0 -0 0 255 0
-0 -0 -0 0 255 0
-0 -0 -0 0 255 0
-0 -0 -0 0 255 0
-0 -0 -0 0 255 0
-0 -0 -0 0 255 0
-0 -0 -0 0 255 0
-0 -0 -0 0 255 0
-0 -0 -0 0 255 0
-0 -0 -0 0 255 0
-0 -0 -0 0 255 0
-0 -0 -0 0 255 0
-0 -0 -0 0 255 0
-0 -0 -0 0 255 0
-0 -0 -0 0 255 0
-0 -0 -0 0 255 0
-0 -0 -0 0 255 0
-0 -0 -0 0 255 0
-0 -0 -0 0 255 0
-0 -0 -0 0 255 0
-0 -0 -0 0 255 0
-0 -0 -0 0 255 0
-0 -0 -0 0 255 0
-0 -0 -0 0 255 0
-0 -0 -0 0 255 0
-0 -0 -0 0 255 0
-0 -0 -0 0 255 0
-0 -0 -0 0 255 0
-0 -0 -0 0 255 0
-0 -0 -0 0 255 0
-0 -0 -0 0 255 0
-0 -0 -0 0 255 0
-0 -0 -0 0 255 0
-0 -0 -0 0 255 0
-0 -0 -0 0 255 0
-0 -0 -0 0 255 0
-0 -0 -0 0 255 0
-0 -0 -0 0 255 0
-0 -0 -0 0 255 0
-0 -0 -0 0 255 0
-0 -0 -0 0 255 0
0 0 0 255 0 0
-1113 165 866.276 78 82 70
-1071 241 588.163 204 161 152
-794 260 462.333 94 92 81
-903 248 673.266 90 89 79
-910 216 582.627 252 222 221
-676 163 447.669 160 168 161
-955 284 495.59 138 114 108
-940 160 740.23 71 75 64
-903 260 668.232 77 49 55
-748 -137 517.153 183 197 186
-818 195 774.033 251 228 220
-1104 159 565.847 255 226 217
-1110 146 595.402 76 68 61
-790 249 464.239 180 161 153
-1116 155 506.175 90 64 57
-897 212 654.958 245 215 214
-1001 137 466.657 29 41 29
-945 149 867.722 81 86 77
-867 181 519.495 51 75 65
-757 -142 496.737 22 33 25
-1166 -116 457.536 58 83 73
-1141 194 502.305 110 101 91
-1153 184 819.252 75 75 63
-778 -152 690.434 134 161 152
-1019 176 520.889 47 55 45
-893 239 537.295 251 220 217
-987 189 516.355 155 149 138
-842 208 625.025 175 156 151
-919 242 858.293 98 112 100
-1010 293 875.593 137 118 110
-1173 203 471.648 88 88 76
-1105 205 803.962 85 91 80
-999 296 678.689 125 110 101
-711 -103 450.171 15 41 28
-730 158 445.605 38 29 25
-1061 187 508.854 120 129 119
-1205 -198 469.514 43 49 44
-945 289 506.088 255 216 217
-1048 273 850.487 104 87 78
-1226 -201 618.485 41 36 27
-946 245 591.178 149 163 151
-861 189 696.062 222 199 197
-767 -143 778.164 23 44 35
-1123 169 525.195 123 89 83
-898 226 890.43 201 167 161
-740 -145 717.113 49 74 60
-996 213 590.556 137 119 108
-996 250 848.068 216 187 180
-686 -55 511.681 123 140 131
-752 -166 609.529 211 199 193
-1109 175 675.47 60 74 62
-805 257 484.839 106 92 86
-922 216 703.072 57 75 62
-1145 -93 489.828 18 25 20
-784 -198 516.01 25 68 53
-1014 228 843.043 99 81 70
-1147 170 806.813 186 155 152
-753 156 802.995 22 30 23
-819 216 498.924 255 222 217
-837 233 448.561 255 230 223
-789 189 456.544 111 99 93
-1172 -173 883.959 130 145 137
-1151 201 780.442 102 110 99
-821 240 583.111 161 169 162
-994 262 656.479 101 99 88
-831 208 528.852 92 109 95
-923 339 526.355 124 54 60
-983 276 598.566 255 225 219
-780 248 549.163 255 232 228
-930 14 468.391 139 166 156
-1378 11 601.817 24 19 21
-993 224 686.137 87 87 75
-677 -103 449.424 203 193 186
-864 220 682.918 84 89 74
-770 163 676.942 214 211 203
-686 -43 501.257 126 135 125
-1148 142 448.985 80 97 88
-917 157 817.191 254 209 206
-954 13 459.177 119 153 143
-1204 -188 610.168 215 212 208
-1320 346 816.378 198 193 192
-1018 277 864.983 119 109 99
-1235 84 449.512 171 185 179
-1010 264 883.171 252 218 212
-719 161 468.403 60 39 37
-935 143 499.529 81 109 96
-1036 -275 652.969 111 119 119
-1015 208 464.073 58 67 54
-500 96 802.589 42 132 102
-1058 270 714.596 216 173 170
-1159 173 679.054 117 121 109
-801 228 712.307 123 122 112
-944 304 651.37 95 68 64
-1140 207 777.39 240 203 199
-1191 -210 726.889 43 55 55
-897 200 760.161 129 155 142
-729 -164 597.621 35 70 56
-1139 126 757.228 52 82 69
-797 217 540.675 98 64 58
-1122 195 472.696 73 100 84
-1099 249 455.275 96 97 88
-761 150 663.484 168 182 176
-941 211 624.888 54 73 58
-764 -173 452.991 127 139 133
-812 184 674.489 70 102 85
-1139 -196 648.781 130 155 175
-886 228 775.764 255 219 217
-1149 215 469.892 109 103 92
-849 190 675.709 98 130 119
-997 189 454.305 125 146 131
-1022 321 873.239 148 127 119
-1197 249 878.175 151 172 169
-1099 110 575.65 15 45 32
-1044 -248 728.261 87 118 111
-803 166 674.155 216 216 210
-1045 227 532.775 58 61 52
-1207 246 595.489 67 48 45
-735 -173 642.726 27 59 48
-779 -99 552.729 79 125 112
-674 -26 569.751 121 170 154
-853 215 518.735 62 72 60
-728 -131 660.327 61 105 88
-1075 -185 762.613 25 41 34
-767 119 749.722 16 24 14
-1091 256 488.298 128 137 127
-958 246 577.088 189 183 176
-1081 249 702.992 53 46 37
-1043 -75 450.525 63 89 83
-950 205 466.663 162 176 170
-808 211 718.352 255 212 209
-730 -154 706.961 218 203 200
-904 -271 485.139 79 120 112
-885 245 697.754 198 164 164
-1206 -77 511.01 43 64 55
-1162 229 494.038 126 140 128
-1087 220 595.235 156 142 136
-779 132 630.372 50 74 62
-685 -96 492.073 34 64 51
-787 154 764.24 137 162 152
-862 165 688.487 77 86 76
-864 80 854.182 61 115 98
-1024 199 570.514 59 69 57
-670 141 607.915 12 20 9
-1170 238 617.176 93 106 92
-1179 215 614.216 250 208 203
-923 194 585.495 141 165 157
-1171 174 596.916 255 218 214
-1106 241 542.751 166 134 128
-1041 154 591.688 87 117 106
-713 73 602.533 63 88 78
-768 -128 474.579 102 153 139
-1194 227 456.62 134 73 69
-861 209 512.387 109 129 116
-929 155 604.101 116 133 119
-1179 136 462.946 14 37 29
-1126 130 480.59 150 182 171
-726 14 518.378 51 77 61
-1171 -47 724.31 142 153 145
-940 255 644.78 68 84 73
-690 149 574.425 119 144 140
-1136 227 485.768 177 155 150
-1159 65 472.922 69 103 96
-1218 23 545.371 49 54 55
-840 180 620.309 97 128 113
-890 184 572.758 132 146 140
-1103 -207 540.013 11 20 17
-849 242 473.846 130 135 126
-825 253 607.176 148 169 160
-1184 199 586.626 119 105 93
-1190 191 857.489 18 26 16
-703 138 786.291 89 118 109
-1198 -104 526.43 12 23 13
-1164 191 595.833 209 187 182
-933 335 868.392 155 160 163
-772 -165 803.229 102 148 136
-712 -61 526.932 168 184 173
-1246 -144 527.126 45 59 55
-778 236 594.483 82 72 62
-1136 54 712.44 52 83 74
-564 214 503.224 61 139 116
-1054 236 694.394 63 81 68
-928 -22 480.429 19 44 34
-720 110 655.447 42 56 45
-627 114 587.967 26 110 81
-676 -37 493.93 93 136 123
-1243 56 593.965 123 147 137
-936 297 810.282 173 148 144
-810 248 518.285 255 227 222
-958 214 674.697 81 115 98
-1120 238 740.909 162 138 132
-1026 122 785.467 131 151 138
-1617 172 579.858 176 165 173
-1054 260 458.768 71 83 71
-717 147 587.27 133 154 145
-933 187 543.039 27 47 34
-779 258 701.607 125 112 104
-709 6 597.543 49 86 76
-722 -116 695.241 211 214 205
-791 -91 563.59 0 12 3
-701 -96 607.888 27 52 42
-1657 171 872.385 159 155 161
-1041 -193 474.239 91 126 116
-1664 199 678.568 164 157 162
-821 177 685.287 104 141 125
-1087 -193 624.745 36 47 44
-1114 -113 743.532 99 139 128
-783 143 753.513 70 105 91
-801 238 744.598 255 218 218
-1024 243 827.479 95 121 107
-937 201 835.017 104 129 119
-1186 68 579.457 84 112 106
-603 148 755.593 72 186 156
-748 80 786.865 129 159 146
-824 264 566.153 255 226 225
-1101 284 573.661 123 132 122
-960 189 537.303 93 135 124
-1117 -206 756.748 126 141 167
-905 275 686.476 78 82 77
-1578 172 751.747 178 172 177
-1625 199 672.06 168 159 162
-1116 -147 477.733 91 125 118
-1081 -54 456.384 33 43 37
-839 190 461.308 217 179 175
-1455 174 473.263 185 178 185
-1183 58 598.845 60 76 69
-1009 177 522.413 102 124 112
-749 -197 549.724 36 95 75
-979 263 473.517 146 128 117
-861 -142 688.646 9 46 36
-1172 88 655.256 56 84 71
-703 -66 618.054 58 84 71
-1494 147 566.004 155 149 154
-690 -71 589.077 54 79 65
-1056 117 599.956 83 93 81
-911 266 529.525 120 105 113
-1043 254 570.254 94 108 96
-761 -56 449.838 48 80 69
-1111 194 659.803 95 126 111
-656 -399 527.826 56 170 140
-1652 187 711.46 166 157 160
-887 65 648.685 66 86 74
-1094 143 485.963 52 91 76
-969 252 624.466 93 113 100
-866 42 488.912 124 154 141
-1067 218 664.836 45 55 43
-1579 186 757.306 70 58 58
-928 -275 753.047 85 129 123
-1545 147 489.132 169 166 168
-1505 201 714.68 151 146 155
-813 160 769.97 135 162 158
-1166 157 832.703 179 205 199
-902 -45 673.425 9 24 16
-1093 228 738.022 89 76 68
-1496 173 564.068 174 167 174
-1584 200 716.872 154 148 149
-1005 10 479.06 181 193 187
-807 -104 477.181 9 45 33
-814 227 551.254 142 128 122
-1189 -111 837.652 56 89 75
-896 -278 656.926 104 138 132
-898 132 591.001 43 68 58
-1524 228 740.86 154 146 156
-1545 201 598.11 164 156 167
-848 -117 494.888 54 108 91
-1611 188 519.845 177 171 176
-1455 190 769.157 83 77 82
-1453 148 468.51 156 149 156
-968 273 832.318 128 116 106
-1074 75 782.161 78 106 93
-1233 -187 570.924 201 189 185
-635 -75 490.329 76 160 135
-682 -18 549.925 154 197 184
-854 -87 559.957 22 28 23
-1203 122 451.936 89 101 95
-852 79 829.487 48 55 48
-703 14 880.619 112 160 148
-1223 81 461.568 64 115 101
-1033 249 756.525 114 134 121
-679 -84 471.754 26 78 60
-733 71 711.061 101 148 132
-1467 202 664.382 182 174 184
-1196 -179 662.118 24 42 35
-1642 226 522.801 145 134 142
-1416 256 767.983 87 83 95
-1038 85 609.467 83 108 98
-838 264 587.865 166 158 158
-678 -203 606.015 23 32 36
-1572 253 457.261 130 126 132
-1603 227 866.215 162 155 162
-829 -141 651.388 74 129 114
-912 -44 484.872 10 21 13
-1082 -85 680.928 46 70 60
-1192 212 579.409 77 79 67
-1534 189 558.884 121 113 120
-1056 219 842.149 57 90 76
-885 -91 539.221 89 116 106
-349 -119 508.536 98 180 157
-976 194 615.229 38 52 40
-1052 178 862.587 134 161 152
-1140 111 466.333 123 162 154
-1413 148 705.158 177 168 181
-684 140 518.056 42 36 29
-870 -288 743.27 50 101 93
-1114 -218 469.737 23 32 45
-909 -289 842.356 91 133 126
-844 -76 486.654 19 35 24
-772 -61 556.817 89 127 115
-1055 -74 651.844 133 174 166
-1659 214 665.159 157 147 153
-1027 96 479.91 29 46 37
-761 97 551.733 144 164 152
-817 105 695.742 61 96 82
-991 288 713.627 117 94 86
-1061 89 786.804 74 117 104
-757 -188 867.745 214 196 189
-849 170 735.801 167 193 180
-951 167 753.122 85 119 108
-1038 166 535.004 50 62 50
-1495 189 890.113 98 91 96
-624 177 693.18 93 229 195
-709 169 508.705 150 155 146
-913 289 552.794 99 106 101
-1114 -69 827.24 46 62 55
-1534 254 504.764 134 127 140
-1564 227 503.459 161 151 157
-947 132 608.733 96 126 115
-1073 144 557.687 76 123 107
-532 51 491.043 42 137 110
-881 -39 765.912 72 121 107
-988 128 595.116 40 56 45
-914 203 567.427 74 109 99
-1378 256 737.521 136 129 144
-772 5 478.073 51 67 56
-636 173 510.556 94 189 162
-1206 20 839.539 149 174 164
-1077 -261 512.799 42 63 54
-1424 204 698.602 155 147 157
-826 -316 854.749 93 132 130
-922 180 699.587 83 113 102
-1649 252 716.608 126 120 131
-855 -154 815.213 58 91 84
-728 87 488.552 32 66 49
-1620 215 798.001 144 138 143
-637 149 597.01 48 118 95
-872 -61 869.705 110 140 129
-793 100 460.143 61 94 80
-1150 243 480.108 92 121 106
-1123 85 580.418 99 148 134
-506 -131 666.41 55 146 121
-1610 253 642.132 121 114 119
-1535 175 556.882 173 166 173
-1253 55 705.743 88 113 103
-1494 254 597.507 99 90 100
-1456 255 511.974 138 133 142
-1112 267 601.65 255 233 230
-1095 133 642.71 119 154 140
-1176 147 577.623 92 115 107
-1190 46 615.984 135 162 153
-827 -1 663.899 35 59 47
-1640 240 735.496 88 77 80
-1406 229 472.4 135 127 138
-1083 37 589.45 47 62 54
-1598 241 527.564 145 141 146
-913 -6 513.517 63 100 90
-1037 236 669.417 79 123 106
-1171 250 687.535 129 150 142
-1488 245 527.428 84 72 72
-1484 229 606.197 137 129 139
-804 110 858.265 108 154 141
-823 156 510.498 99 127 121
-1218 5 638.353 116 150 143
-782 213 521.524 154 164 158
-1525 242 499.678 56 45 48
-818 -259 544.973 82 125 112
-688 168 516.504 116 136 131
-1145 97 536.192 67 107 96
-625 147 729.377 117 219 191
-693 63 582.001 151 145 140
-850 -129 525.84 70 132 116
-801 202 777.124 89 97 87
-1245 84 752.741 44 48 43
-1238 -162 483.251 45 59 53
-1181 176 875.41 85 115 102
-768 -96 758.186 23 34 26
-1164 28 683.979 128 155 151
-849 261 708.355 247 215 216
-1582 215 611.587 131 122 125
-927 101 766.506 149 183 172
-1445 229 542.37 129 120 130
-785 -80 636.47 73 113 101
-717 -128 669.437 224 215 205
-784 -123 692.131 95 146 132
-1375 284 872.311 103 95 106
-598 134 495.59 56 147 121
-1003 -61 854.803 23 33 27
-1505 216 596.215 85 74 77
-781 199 586.879 133 166 159
-1447 243 474.901 56 52 51
-1135 96 762.387 45 101 82
-757 -109 550.236 185 198 190
-1303 315 467.976 65 51 53
-929 245 470.454 75 108 94
-565 227 598.799 227 248 233
-903 285 538.894 128 151 146
-876 -258 455.276 41 90 76
-1083 -112 714.644 118 146 140
-1451 163 708.227 169 166 181
-786 44 509.376 72 86 75
-1079 27 480.838 38 46 39
-1018 66 509.483 57 85 72
-793 -58 456.675 84 109 99
-955 110 494.513 123 142 133
-1227 279 686.23 201 190 186
-1212 -127 573.849 104 147 134
-1107 256 452.407 248 222 216
-1081 279 850.453 152 167 163
-1543 216 572.612 127 116 124
-767 -228 496.528 31 78 69
-1425 218 742.732 111 100 108
-732 -256 529.971 4 58 59
-1455 271 653.921 82 73 86
-691 53 770.194 130 173 160
-1563 242 448.199 66 55 57
-885 -10 706.953 31 44 36
-781 54 572.73 81 103 91
-1035 66 496.501 78 117 102
-925 233 796.956 50 83 68
-800 131 469.855 99 135 123
-638 160 497.961 49 127 103
-308 -124 577.35 96 169 159
-1489 164 848.103 170 161 171
-1415 283 719.408 107 97 109
-834 165 792.407 140 171 162
-752 107 596.198 29 45 34
-1007 -93 498.533 4 19 11
-1464 217 845.372 143 131 137
-898 -288 496.616 19 21 22
-1062 -50 629.823 109 151 140
-1405 244 563.411 144 138 149
-1412 163 726.391 169 164 166
-895 -143 592.286 62 92 79
-1206 209 450.092 108 125 114
-521 46 658.356 45 142 116
-931 111 593.519 112 155 140
-846 -144 593.42 1 38 30
-803 -38 594.292 72 108 94
-1237 -176 525.481 90 121 114
-929 -46 756.212 112 142 131
-969 206 547.533 53 88 74
-1221 -179 562.619 73 93 88
-1178 113 637.696 154 185 178
-1062 15 578.678 74 101 91
-455 -145 575.232 38 77 75
-1198 111 513.822 73 94 86
-598 121 521.706 59 131 108
-414 -126 542.509 66 131 122
-872 -243 652.452 55 110 95
-632 47 505.494 18 94 70
-1027 153 732.426 75 118 103
-1215 42 877.44 21 34 26
-886 283 499.237 119 104 108
-1087 -136 552.861 94 122 116
-900 10 542.838 71 101 88
-942 123 751.269 104 148 135
-1156 21 472.322 111 142 135
-785 124 597.756 107 132 122
-1093 -201 540.689 123 144 159
-817 -300 672.624 0 22 19
-1182 240 867.165 181 165 159
-891 -43 608.515 27 59 48
-1070 291 549.682 121 154 147
-934 174 563.776 36 58 46
-943 325 733.568 167 139 139
-1515 203 870.724 91 79 79
-633 183 498.755 76 154 130
-775 -216 666.074 74 136 118
-872 -208 504.158 40 72 61
-665 125 647.655 83 121 103
-921 270 507.383 102 107 98
-1154 106 670.296 96 136 131
-1080 291 502.642 255 232 228
-1066 -109 804.628 38 49 46
-1019 140 477.012 69 87 74
-1504 147 581.977 121 109 107
-1493 268 883.884 110 106 117
-1098 193 455.385 44 67 53
-632 -165 459.438 113 191 168
-1176 100 475.152 92 126 119
-1050 300 619.454 255 219 215
-825 87 553.862 47 68 59
-1122 -177 564.913 56 79 75
-1545 170 449.152 47 33 34
-753 132 497.333 70 109 94
-823 -118 539.562 13 47 36
-1268 -70 665.038 41 71 60
-1000 1 852.236 87 103 96
-791 -235 539.417 0 10 3
-1246 367 762.808 191 178 176
-767 -195 767.712 56 103 87
-1226 43 628.1 119 132 124
-1075 154 473.852 51 59 52
-650 164 859.434 67 131 109
-1258 -74 666.372 24 49 39
-751 22 873.438 40 66 50
-729 143 524.59 106 136 123
-826 145 875.85 83 108 98
-512 97 541.717 74 162 138
-1136 35 590.618 53 87 76
-756 -231 612.808 73 122 108
-678 25 827.871 134 168 157
-1102 -63 549.776 104 147 138
-495 -158 547.322 18 69 65
-708 126 614.049 40 71 56
-507 -188 498.766 38 120 121
-974 288 503.58 255 221 217
-1090 181 586.345 127 161 150
-1194 134 525.206 118 139 131
-639 -65 632.271 33 100 79
-742 130 778.329 101 123 111
-617 158 529.786 41 164 132
-679 -7 545.308 100 149 133
-520 -157 539.217 56 134 103
-835 140 512.601 38 68 55
-1195 -119 639.838 13 41 28
-1192 -11 810.54 50 77 68
-831 61 458.028 72 91 82
-860 -131 476.884 43 89 76
-1193 122 447.985 103 124 121
-803 191 582.029 134 153 144
-1532 268 562.772 85 77 87
-1571 358 606.264 191 98 89
-1208 60 509.33 29 26 21
-1577 -46 606.016 169 166 161
-940 -36 486.303 34 59 49
-739 27 486.851 53 84 69
-857 -14 738.9 37 54 43
-1463 148 884.31 127 115 115
-715 -213 551.435 13 25 27
-1123 97 551.582 59 98 82
-1456 282 451.816 102 94 101
-510 -178 499.828 38 115 118
-1203 185 602.636 36 53 44
-796 -138 565.612 74 123 107
-1088 240 593.095 170 168 160
-443 -152 623.443 10 61 64
-1073 -62 816.952 130 163 156
-941 -52 469.8 51 81 68
-479 85 470.825 37 118 93
-1565 -45 550.517 142 139 155
-742 60 471.752 56 86 75
-1110 -93 448.88 112 136 128
-1049 -93 512.275 58 87 84
-836 108 884.367 67 93 80
-1078 178 489.019 48 65 54
-1071 279 819.432 82 108 95
-1110 83 599.9 48 94 81
-500 31 682.545 50 137 111
-1229 16 659.178 104 115 107
-1053 -239 685.67 43 76 69
-983 300 590.886 255 224 219
-860 231 862.179 249 220 213
-1210 162 664.739 77 101 89
-917 7 495.827 36 53 44
-966 0 581.959 21 38 29
-1129 214 610.495 255 222 220
-898 -22 463.04 76 110 99
-633 -94 538.452 75 157 134
-863 -44 544.124 122 158 144
-957 -37 821.429 35 52 43
-1194 20 873.201 81 113 102
-1279 385 814.648 73 63 63
-966 63 643.578 79 105 92
-978 161 532.766 80 104 92
-1263 49 790.928 186 182 177
-754 121 566.289 88 127 112
-703 50 863.243 138 168 157
-765 -116 561.378 98 125 115
-1079 214 786.317 100 130 117
-1027 188 692.897 64 81 70
-468 148 560.143 55 119 97
-1179 77 679.25 97 126 117
-725 64 566.686 85 110 100
-778 -112 537.244 21 32 24
-1193 144 732.355 77 94 85
-924 -253 806.48 92 145 132
-781 -40 774.997 85 118 104
-976 181 792.282 88 109 94
-491 88 598.715 68 162 137
-1092 -169 812.081 94 111 132
-1088 123 708.919 97 139 128
-1040 190 883.791 89 111 99
-956 139 804.112 44 69 59
-627 209 463.557 71 198 167
-1095 -143 767.62 81 111 100
-809 49 461.935 108 125 114
-1159 97 783.21 102 144 137
-1192 -73 632.697 22 42 30
-710 113 463.409 138 141 132
-1608 266 455.186 102 95 102
-936 -222 662.474 47 90 75
-1569 267 593.148 122 115 128
-1055 314 514.563 166 179 171
-1646 266 478.715 93 79 90
-1211 -68 461.242 12 27 23
-661 -205 485.229 51 105 98
-1372 163 536.29 117 111 128
-1191 -62 474.903 39 58 49
-1069 -255 487.956 67 117 107
-865 63 473.884 96 141 125
-1005 70 564.99 67 87 74
-521 103 474.736 87 171 147
-1014 102 709.711 69 94 84
-923 283 756.004 109 122 114
-1230 110 485.806 52 80 74
-751 96 572.376 20 38 25
-1240 74 775.235 99 126 116
-765 -84 445.391 56 92 80
-818 117 495.806 128 165 155
-412 -145 460.672 2 52 52
-877 -226 751.989 48 87 72
-873 -50 651.127 14 35 26
-1199 55 706.985 66 102 88
-1213 88 781.338 66 111 95
-1079 194 458.63 74 86 74
-763 175 758.663 230 198 193
-1250 -159 607.24 178 166 162
-310 -147 499.887 39 103 103
-759 54 514.746 29 45 34
-981 203 536.276 66 84 71
-1074 319 684.158 171 168 163
-836 150 525.895 30 62 51
-832 -48 464.154 74 106 95
-1050 166 875.667 77 104 94
-736 52 641.266 75 112 96
-1241 41 552.605 65 95 84
-1200 66 492.867 30 61 52
-894 119 475.906 77 116 101
-1066 -79 689.397 68 115 107
-1078 167 484.471 80 103 89
-829 -294 473.839 83 120 112
-409 -135 498.382 112 193 184
-872 -137 861.405 39 84 68
-1220 -62 762.971 38 59 51
-879 270 504.218 249 194 203
-1177 -98 582.397 53 80 70
-1220 198 688.527 45 62 53
-1194 9 693.638 43 75 64
-799 -228 470.411 55 108 94
-1010 318 655.849 255 219 213
-1538 282 705.995 88 75 83
-874 -2 833.761 80 112 101
-918 76 463.077 64 83 74
-1368 275 598.478 108 93 101
-1202 -12 594.647 49 72 67
-854 -170 667.402 24 55 46
-1240 -45 587.44 34 58 50
-1081 269 567.319 149 160 152
-1073 301 632.22 157 148 144
-874 137 752.842 61 80 71
-1118 -101 753.88 85 102 98
-444 133 617.362 64 131 116
-1352 242 452.044 101 86 84
-1038 177 611.702 59 79 67
-907 -182 603.654 63 94 85
-1119 107 821.338 41 94 80
-930 256 505.856 32 60 47
-777 101 453.591 51 73 61
-1380 149 458.878 128 114 125
-556 233 500.911 99 168 141
-473 163 668.557 73 182 160
-1200 -39 566.63 35 74 58
-512 -166 879.507 8 59 62
-1306 -53 486.083 111 143 132
-808 121 876.575 120 143 135
-884 133 702.974 114 141 131
-273 -97 859.767 66 151 129
-1079 131 788.26 73 114 99
-743 143 488.39 134 168 158
-1012 50 476.174 32 47 39
-964 24 579.687 99 114 106
-572 281 638.576 183 181 173
-1070 205 500.759 72 91 82
-803 -175 524.665 87 135 123
-558 203 471.708 40 133 106
-1497 282 496.739 92 82 94
-1434 204 780.433 109 91 92
-528 -135 658.663 83 177 153
-973 300 620.874 255 224 221
-858 -255 797.75 34 70 58
-886 -160 471.089 47 72 62
-1072 61 584.204 32 49 40
-575 -77 506.668 81 177 153
-1578 281 514.111 96 88 95
-923 -9 637.679 54 86 75
-657 -50 622.7 49 111 89
-631 -182 579.332 39 118 99
-1181 230 714.979 120 91 86
-628 159 458.173 87 193 164
-882 -135 457.919 26 75 59
-933 77 510.504 125 144 135
-1105 51 488.865 42 57 49
-937 133 478.28 57 84 74
-564 -58 551.635 72 167 140
-1209 -21 722.355 27 55 42
-838 -8 641.685 80 100 88
-684 68 586.228 101 114 106
-1213 118 687.127 91 125 118
-902 147 518.175 50 80 67
-1212 -6 587.727 96 123 114
-1146 39 497.041 65 108 99
-949 -43 591.546 99 133 122
-871 -32 556.931 42 83 68
-635 -155 619.057 98 173 151
-635 -32 501.321 75 152 131
-1659 279 458.692 91 82 92
-1618 280 569.146 101 91 97
-708 -87 511.504 27 60 46
-1228 -44 524.411 101 126 116
-1150 -40 759.995 96 113 104
-1355 218 553.891 107 98 111
-1255 -133 618.849 84 103 94
-950 268 472.477 74 120 101
-1024 41 843.877 92 111 102
-656 200 527.551 135 210 194
-622 -77 820.338 15 93 69
-1368 14 465.909 42 30 28
-912 -278 814.948 15 13 13
-910 333 868.524 114 57 56
-1246 -170 798.417 184 173 169
-975 97 825.87 122 142 129
-315 186 563.461 13 100 67
-1362 195 544.114 172 170 189
-993 94 635.694 53 59 48
-1209 -116 690.174 36 57 48
-1053 -224 528.464 84 128 115
-763 -157 818.096 34 61 51
-820 -174 532.671 65 108 95
-951 -243 761.047 60 96 84
-244 107 600.432 40 125 103
-884 209 886.254 139 159 154
-1221 172 472.527 39 50 42
-496 -137 484.316 106 186 163
-639 -85 744.951 31 111 88
-730 119 475.877 31 67 53
-867 -168 759.892 49 76 67
-539 184 694.426 61 204 171
-1514 263 775.956 76 58 59
-880 -201 576.272 34 58 48
-719 -6 814.854 22 48 34
-701 69 559.938 188 180 173
-576 -35 642.177 81 183 155
-501 340 551.025 242 252 240
-1175 -192 640.501 137 153 159
-1218 57 727.931 63 84 75
-862 -241 704.606 23 56 42
-839 69 468.649 102 144 133
-1115 130 607.886 129 153 143
-1042 74 524.577 105 143 131
-1113 -56 631.882 63 87 77
-995 149 866.769 31 56 46
-632 -194 449.028 35 100 98
-490 105 540.891 61 149 125
-1423 270 682.036 76 64 60
-309 195 854.635 43 105 81
-877 73 471.53 24 33 23
-743 -86 494.247 12 27 19
-1216 -84 544.5 20 39 30
-1106 -139 538.188 40 57 46
-928 -59 682.531 7 18 10
-1187 249 638.202 151 117 118
-661 -177 793.029 78 151 129
-740 119 597.353 37 54 45
-1301 275 482.409 75 67 67
-872 29 541.789 37 51 40
-1116 -44 572.968 65 90 80
-724 134 813.737 39 76 60
-1058 -119 549.842 71 100 91
-925 -80 786.125 70 94 84
-705 37 787.504 74 129 110
-851 -33 514.14 24 37 29
-1062 147 716.252 72 97 87
-1301 -42 853.978 149 170 162
-1051 153 469.193 33 68 58
-1510 359 628.901 199 107 102
-929 122 649.452 69 118 102
-1218 -30 580.395 118 148 143
-739 95 464.492 70 88 75
-1034 132 504.799 50 78 65
-1229 98 501.019 112 156 143
-509 352 789.735 213 219 202
-830 10 508.714 41 78 62
-879 -115 495.741 88 130 113
-842 -299 568.64 0 14 11
-422 -145 828.69 48 94 95
-844 -66 728.087 27 49 37
-756 74 567.095 29 70 55
-787 70 523.341 51 75 63
-876 63 632.509 51 68 57
-1118 45 570.896 113 141 135
-1504 254 682.872 67 54 56
-1138 -81 640.13 23 30 25
-910 43 542.091 35 46 38
-1229 -139 505.405 84 111 102
-1168 76 840.632 117 142 138
-1183 -162 595.831 40 74 63
-227 -107 576.397 56 137 122
-1228 -34 797.682 69 94 84
-907 55 549.331 105 130 120
-878 -168 600.082 59 95 83
-791 -69 481.726 37 69 58
-1287 -53 550.912 74 112 100
-646 -163 464.965 102 182 159
-1336 284 628.791 79 69 82
-847 97 490.129 97 114 103
-1035 311 564.983 122 132 119
-840 13 473.716 46 81 67
-1297 -61 745.714 126 156 145
-1538 157 463.131 130 119 121
-1093 87 477.016 117 143 130
-1528 -11 534.044 122 109 163
-782 34 771.035 34 52 39
-881 22 810.765 104 121 112
-626 100 860.008 66 145 118
-1222 -95 520.397 61 78 67
-845 -249 467.503 29 59 46
-1243 121 473.844 131 132 130
-570 76 516.829 26 110 85
-846 28 684.146 42 56 45
-1553 -50 590.567 94 81 113
-911 33 454.932 89 106 97
-1178 260 691.756 233 206 202
-566 -230 450.697 98 138 156
-673 -69 517.986 47 96 74
-808 72 459.891 57 79 67
-1383 274 449.645 72 61 64
-1216 187 854.655 117 128 118
-1038 -93 531.23 60 84 74
-796 -208 671.336 32 75 64
-956 152 710.894 59 82 68
-1062 106 752.202 35 43 36
-1363 205 801.35 107 100 103
-1237 -11 581.051 107 151 138
-819 52 514.985 83 111 98
-1131 79 827.801 101 137 125
-794 -109 599.612 21 34 26
-664 -192 571.981 53 132 113
-708 -17 482.86 34 66 55
-1152 -141 561.204 144 156 150
-1355 232 809.606 93 85 86
-1051 199 487.979 41 59 46
-1003 102 660.406 49 65 54
-785 82 803.413 26 51 37
-1024 300 789.746 100 104 92
-1062 285 507.946 220 185 181
-1070 100 763.726 44 74 61
-809 -231 854.281 42 85 70
-511 25 852.123 131 221 192
-909 -123 502.66 99 141 124
-1214 -103 711.911 42 57 49
-1031 291 764.158 255 226 221
-295 -152 603.283 26 95 114
-918 -57 518.504 0 10 4
-926 138 451.067 129 168 160
-655 -371 577.828 41 226 186
-1256 -31 686.596 60 91 82
-480 96 710.873 64 151 125
-1312 159 728.034 168 156 156
-1097 267 466.769 128 139 129
-634 33 518.013 65 149 124
-1027 12 574.239 105 124 115
-192 -62 550.968 187 182 179
-899 -215 487.244 30 64 53
-968 161 598.443 111 138 128
-748 -243 557.493 64 122 117
-1081 -145 736.88 0 10 7
-1372 177 787.165 124 110 116
-892 161 479.347 72 94 82
-544 163 445.772 36 99 73
-986 -46 813.808 96 112 105
-806 143 645.842 118 159 144
-1085 316 445.268 255 217 212
-1477 263 490.299 85 73 73
-1032 -242 534.304 63 100 90
-1177 -37 865.746 31 52 43
-646 -390 775.087 30 152 122
-296 221 696.499 53 140 106
-1056 -101 616.583 65 93 87
-1128 -45 584.54 21 40 31
-1164 14 510.154 48 75 65
-814 63 686.381 62 79 68
-1294 364 754.157 131 116 113
-592 -202 829.759 80 114 144
-1252 -56 612.56 31 75 62
-717 -236 488.965 74 136 124
-660 212 532.18 142 200 182
-963 172 657.185 137 171 160
-434 121 851.548 130 219 193
-890 -32 522.585 25 77 60
-468 -144 770.109 71 144 128
-709 -48 581.412 33 54 45
-798 83 513.307 57 71 59
-1357 15 501.733 126 114 114
-1146 28 711.928 120 157 149
-613 -208 510.705 22 84 100
-729 -217 472.337 45 110 95
-791 21 521.857 63 87 75
-814 28 738.034 31 51 39
-828 -306 555.347 2 17 19
-1249 389 794.16 67 45 47
-1219 154 886.655 166 185 182
-440 -120 589.679 9 92 70
-1126 -35 520.84 21 35 29
-450 201 498.364 100 207 181
-634 10 864.998 69 150 125
-1161 -38 718.197 44 59 51
-1025 -60 568.882 39 59 47
-1342 270 495.24 68 53 57
-1186 -3 479.035 2 30 17
-1078 -248 484.934 37 80 67
-1185 31 569.471 17 38 29
-1096 -157 799.212 11 21 15
-890 -190 517.094 81 105 97
-435 -145 539.07 13 49 43
-631 -207 495.719 48 119 123
-1208 32 765.606 51 78 68
-244 -112 616.898 54 131 117
-1161 246 862.397 255 217 219
-805 -243 637.692 61 98 94
-227 -118 646.723 77 156 142
-456 130 704.753 67 150 128
-906 323 602.134 220 136 140
-815 -249 649.948 21 59 47
-1207 -51 460.996 99 138 123
-736 39 532.281 61 98 82
-877 85 652.469 24 33 23
-851 -98 551.137 59 79 67
-948 97 743.437 53 74 65
-1518 252 638.056 41 30 33
-977 -85 702.377 94 121 111
-444 123 539.729 55 141 117
-872 149 533.16 106 138 127
-874 196 562.603 83 126 115
-1341 68 534.703 186 174 172
-1124 -80 479.998 63 84 76
-644 -349 614.753 34 139 120
-977 -35 446.242 21 27 22
-1025 -250 688.04 33 51 44
-1219 244 461.105 151 130 128
-359 111 503.515 47 142 122
-179 135 604.062 58 129 109
-1041 56 536.779 65 104 89
-839 91 751.695 44 63 54
-1557 206 836.851 86 74 68
-727 -243 669.809 46 106 98
-428 -328 755.848 22 111 108
-806 -209 633.27 74 133 118
-321 -115 687.077 25 78 68
-1146 51 454.361 122 160 154
-421 -156 832.574 29 104 113
-314 105 558.71 80 172 153
-1163 -13 658.337 29 45 38
-1085 202 760.153 88 107 98
-232 -16 507.598 110 177 162
-814 85 858.269 54 78 68
-423 -119 705.277 88 170 148
-1183 17 548.582 57 82 72
-1095 302 699.242 252 217 213
-822 275 627.748 213 163 173
-679 14 828.525 87 151 132
-401 -129 803.876 26 79 92
-1536 233 504.384 73 60 58
-1056 -265 586.632 97 116 131
-1436 264 703.5 92 80 78
-828 299 538.108 176 172 171
-1190 85 545.302 91 126 112
-487 8 555.959 94 172 148
-1034 42 506.216 52 68 57
-890 321 645.716 179 126 165
-627 220 746.005 68 181 154
-1180 -65 860.669 17 34 25
-984 232 520.169 79 91 79
-1277 -47 458.862 117 146 137
-1508 -2 534.137 70 53 126
-1243 357 545.103 187 182 179
-710 -227 545.12 44 78 94
-643 -24 461.858 88 165 144
-1190 262 446.551 255 212 211
-831 -173 652.789 17 28 20
-648 3 846.537 74 157 132
-277 -87 526.092 16 81 65
-621 -193 580.377 39 96 93
-1594 184 493.409 134 118 119
-492 -2 649.902 74 162 139
-645 -57 780.179 28 81 61
-695 39 647.966 89 148 133
-1212 98 457.892 79 132 118
-815 95 830.029 15 32 23
-413 -114 719.368 98 176 153
-832 -277 735.005 24 70 58
-885 -148 761.221 89 134 125
-1060 58 753.326 51 81 70
-1325 115 623.672 184 172 172
-865 -73 469.885 81 116 106
-1139 -33 546.586 74 90 83
-1127 7 821.633 16 32 21
-493 57 477.773 66 166 138
-1195 99 677.915 54 96 85
-647 -359 748.731 16 105 102
-719 -16 704.856 32 61 46
-259 -70 601.002 56 133 125
-553 152 710.494 25 99 73
-434 92 497.757 76 161 139
-788 -247 576.805 65 118 105
-1064 -152 496.495 2 16 10
-847 56 574.017 96 142 130
-971 -18 728.667 23 34 24
-197 153 584.865 141 167 153
-1224 -107 524.813 91 94 85
-600 180 554.295 56 143 117
-998 31 639.188 60 75 67
-948 337 447.471 173 135 135
-774 82 596.874 42 64 52
-515 -363 693.661 16 119 98
-803 59 582.471 46 60 49
-862 -24 569.201 66 105 90
-1183 -85 458.352 42 61 52
-983 -16 555.143 48 54 49
-1256 69 551.444 149 145 140
-741 -228 551.972 12 58 46
-659 223 795.517 114 157 144
-997 159 681.368 52 71 62
-1196 -27 585.777 64 91 75
-1558 219 778.364 84 69 66
-1222 -120 736.491 13 37 27
-1628 177 505.548 85 68 65
-1242 151 509.226 178 173 174
-826 20 468.081 39 81 63
-1116 23 532.947 76 94 87
-866 269 725.072 251 188 197
-1353 37 615.389 188 176 174
-935 94 525.186 129 153 145
-1054 72 547.317 74 115 100
-636 -218 779.312 26 96 120
-949 219 465.457 41 66 52
-419 -334 670.606 0 73 68
-482 -130 660.177 65 144 125
-1237 -117 753.69 45 66 57
-647 138 706.32 58 114 93
-635 249 513.41 87 204 179
-525 147 528.333 47 128 103
-996 -14 612.152 19 26 21
-347 -23 468.56 107 183 159
-629 88 803.323 68 146 122
-946 -118 727.314 62 73 65
-562 179 646.722 52 196 161
-1304 263 648.331 110 96 90
-288 230 733.805 35 106 79
-875 -149 537.875 77 121 114
-1093 -125 634.004 30 66 54
-282 -128 603.311 77 156 145
-553 170 618.923 44 121 94
-1668 176 469.896 77 65 65
-1346 280 559.858 59 45 46
-844 -19 478.005 41 52 44
-999 -71 761.23 50 80 69
-945 -27 481.986 62 89 79
-1246 400 519.688 108 87 85
-455 -166 500.292 23 72 94
-1297 375 767.191 51 34 37
-642 19 489.543 77 153 129
-800 2 491.197 62 79 70
-321 -103 585.919 19 75 62
-507 -157 600.887 72 167 152
-657 -6 563.245 12 79 58
-194 -83 669.138 157 172 175
-1265 268 509.349 130 111 106
-1043 208 551.413 67 87 74
-1516 -10 611.063 97 88 161
-812 -59 581.343 29 46 37
-1638 185 628.719 91 73 72
-976 81 747.723 47 51 45
-1062 -219 670.047 41 79 67
-430 -134 671.189 43 114 94
-925 374 504.394 234 143 139
-366 154 875.487 41 209 173
-603 -386 484.623 20 116 106
-1206 144 464.171 63 79 72
-891 -223 509.571 23 53 42
-593 -394 570.054 34 130 113
-731 -230 524.469 54 116 104
-640 220 473.137 92 194 166
-1037 -62 458.28 28 45 36
-665 0 556.886 21 94 72
-491 -148 637.326 67 136 121
-1338 84 471.17 193 181 181
-1201 87 786.454 62 98 84
-875 159 699.005 126 155 146
-749 35 715.353 34 60 46
-880 123 860.511 49 65 54
-950 -62 723.076 24 48 38
-1049 -114 710.763 30 47 38
-1556 186 521.374 117 103 97
-872 -124 451.974 27 49 37
-564 -45 585.654 0 68 43
-870 -278 562.89 70 122 112
-1204 173 767.476 55 88 74
-601 108 558.715 15 77 53
-1079 -209 792.069 38 74 74
-623 -215 475.188 37 100 114
-1553 261 615.638 106 92 94
-1269 29 543.134 139 130 121
-464 137 616.112 42 107 86
-572 179 640.532 75 213 179
-1467 263 863.341 66 54 54
-995 18 528.367 30 41 31
-1095 -114 595.027 57 105 87
-543 153 629.545 64 138 112
-1103 224 509.5 69 87 74
-1240 -62 529.206 80 101 92
-311 -102 450.614 78 158 141
-1347 258 678.173 83 67 68
-555 220 614.733 198 213 199
-261 -132 538.715 71 161 148
-769 61 556.016 111 133 121
-719 -252 597.89 52 112 111
-639 81 575.969 83 153 130
-1287 -65 784.683 51 94 81
-1458 234 633.27 100 85 82
-815 -223 447.827 64 113 99
-932 40 577.387 84 97 89
-590 251 731.352 97 181 153
-336 -21 736.365 105 187 165
-988 -63 477.616 32 40 33
-1507 272 513.592 62 57 56
-320 -91 757.239 85 160 139
-663 10 781.971 49 133 108
-593 88 473.844 65 153 130
-1596 205 688.455 69 56 54
-799 -192 797.66 54 92 80
-770 -75 851.947 83 126 113
-1005 82 846.668 39 55 44
-1028 -207 470.378 32 64 53
-262 -267 510.195 64 144 143
-1236 -73 639.546 26 49 41
-333 175 623.739 12 92 61
-1535 -38 521.309 67 60 95
-248 -196 454.645 49 128 117
-957 34 679.828 34 45 35
-738 -243 813.024 62 120 115
-1051 44 474.65 45 65 53
-1218 -145 483.512 104 137 130
-1139 16 478.285 37 61 49
-862 -4 881.029 69 103 92
-1234 -130 521.818 39 69 58
-926 -145 501.009 59 80 71
-649 121 676.887 47 87 69
-324 165 720.719 55 131 97
-583 -400 819.13 12 100 86
-663 52 531.329 55 129 105
-1065 -236 552.143 59 104 95
-806 21 507.757 125 149 137
-645 -338 675.83 23 123 111
-569 -367 552.323 25 140 113
-445 107 689.519 49 138 112
-908 -142 540.857 44 71 61
-215 -161 563.976 55 138 116
-734 -94 546.222 27 44 35
-1075 50 669.035 80 105 95
-487 173 458.507 46 149 121
-1307 117 752.236 128 116 112
-995 55 526.295 48 63 55
-1198 32 523.962 41 65 55
-1265 39 605.842 116 113 108
-916 62 866.475 42 59 50
-1190 -149 449.235 59 99 88
-883 166 542.717 65 108 95
-584 -140 504.26 72 96 156
-1105 -39 857.445 75 91 84
-981 69 696.794 49 69 57
-1603 179 598.404 112 100 94
-1159 -186 471.014 37 72 75
-1041 120 494.007 95 114 105
-983 54 460.182 85 109 97
-1446 261 519.484 93 82 74
-1241 1 580.366 127 129 123
-249 -123 500.01 60 132 119
-1295 297 457.2 152 146 151
-500 10 523.438 64 153 127
-265 -206 567.182 40 109 124
-886 148 591.896 60 93 79
-254 -183 616.633 66 152 140
-1064 -1 635.771 6 13 6
-1113 225 831.677 60 96 80
-574 88 872.05 47 139 110
-568 247 751.25 81 140 112
-1025 -227 549.077 26 29 27
-715 31 633.228 33 79 60
-848 287 599.274 246 185 219
-530 -250 580.439 26 56 81
-1126 -60 858.302 66 73 68
-582 146 580.959 55 141 117
-656 -339 512.198 39 170 150
-1167 -3 461.588 60 84 74
-1547 272 715.656 64 58 63
-658 237 726.352 114 168 151
-1219 107 805.676 63 119 106
-666 -43 870.659 38 103 81
-655 181 603.532 101 188 168
-1572 214 761.077 129 117 111
-1477 207 620.245 111 102 98
-1085 108 561.985 64 97 82
-744 5 707.547 41 61 48
-695 -10 722.119 19 56 40
-863 117 699.603 100 125 111
-845 -43 887.721 82 120 108
-966 87 473.885 60 75 67
-1042 -217 499.024 34 62 49
-1426 240 557.59 159 141 140
-674 -223 635.373 53 84 115
-810 -199 853.09 28 67 51
-977 240 882.539 67 87 75
-361 17 638.649 92 174 151
-523 136 452.555 47 138 112
-954 74 663.787 57 70 62
-210 126 474.42 238 255 246
-573 -403 528.216 21 103 91
-1037 13 503.858 46 67 58
-665 -133 619.195 168 204 188
-1052 8 461.136 91 116 106
-599 -132 666.201 14 38 90
-302 206 473.874 2 131 92
-271 -136 657.082 54 137 129
-1213 218 516.572 148 129 124
-1110 -124 804.425 66 106 95
-1154 -173 525.748 73 100 91
-227 -129 754.42 57 140 125
-313 -224 541.488 52 138 144
-761 -241 470.078 59 115 104
-370 -99 556.983 103 187 162
-1143 -8 726.527 101 126 116
-636 -389 790.995 22 133 113
-637 -238 602.529 35 113 129
-888 85 538.671 63 80 67
-283 -108 548.039 28 101 91
-490 29 486.555 90 181 155
-487 151 477.43 48 128 97
-1032 211 464.524 72 89 76
-556 -239 534.153 20 36 119
-848 -2 577.029 75 99 89
-746 -27 802.33 49 64 56
-638 0 472.893 74 147 125
-890 4 514.444 54 65 55
-890 -180 842.994 4 20 13
-538 103 733.246 58 134 110
-380 -94 693.75 126 201 179
-258 -7 690.96 91 168 147
-752 -6 506.508 33 46 38
-1666 261 552.717 60 46 47
-867 -95 886.566 43 77 66
-322 178 751.858 69 191 151
-1230 163 538.12 130 127 122
-967 105 676.941 85 102 91
-953 -10 526.112 36 76 64
-1309 172 459.662 165 157 157
-946 35 670.127 56 70 58
-571 -258 606.901 30 115 137
-775 -24 602.088 32 46 35
-276 -145 562.957 40 112 124
-1282 373 483.602 89 81 81
-1521 214 646.384 146 129 126
-825 72 752.421 42 59 46
-451 -119 627.288 96 185 166
-631 239 835.812 77 193 164
-1668 272 539.208 102 95 102
-258 5 876.489 91 165 147
-1015 248 450.453 103 129 113
-757 200 511.384 252 210 211
-390 172 869.183 0 103 67
-1559 272 563.499 74 66 67
-770 -13 708.543 33 47 36
-952 43 765.632 29 38 28
-885 -212 563.675 56 92 78
-1548 282 793.468 60 49 51
-1264 -52 482.042 94 105 95
-572 258 469.626 91 151 121
-461 167 468.048 71 151 144
-910 82 708.384 53 70 59
-241 119 488.327 90 172 153
-1500 240 485.518 127 108 105
-938 -263 485.681 43 61 54
-1022 -216 455.934 39 73 63
-841 42 451.996 60 76 65
-1254 -44 706.316 109 141 130
-365 -108 748.045 95 175 152
-1600 259 492.006 80 66 67
-1604 211 574.935 122 107 104
-332 -108 828.124 74 135 115
-1322 130 764.887 181 167 168
-876 9 543.968 24 35 25
-237 -90 550.854 54 131 110
-560 -301 576.685 4 73 63
-1308 149 565.918 132 120 116
-398 115 533.642 62 139 131
-1045 33 667.475 69 94 84
-495 -300 483.643 16 92 81
-249 -274 575.745 52 139 135
-1069 36 881.185 66 86 74
-674 87 626.954 94 149 132
-572 -310 707.119 22 106 112
-1015 -4 735.274 53 59 54
-239 -213 882.225 49 135 125
-237 -195 532.06 72 155 147
-291 -78 467.305 17 96 75
-1635 205 518.173 67 53 47
-641 -175 647.095 112 187 166
-1014 -120 535.167 28 35 30
-469 -132 662.66 98 180 158
-577 -392 748.661 18 103 88
-775 -84 658.08 47 79 68
-701 -30 511.09 45 72 62
-406 -100 524.627 99 176 155
-853 111 682.326 45 54 44
-1080 -156 795.117 21 44 36
-897 42 552.048 45 61 50
-1153 -7 799.846 38 63 53
-1158 54 761.416 132 169 165
-782 -255 561.476 27 76 62
-1298 202 455.365 130 112 113
-555 -357 519.599 21 115 91
-1081 -41 796.596 20 24 18
-1586 232 494.986 61 47 48
-266 -81 542.03 88 167 148
-606 -374 496.916 21 110 101
-1093 -6 496.105 52 66 60
-272 -215 621.004 33 111 118
-1445 155 529.036 131 119 117
-1283 128 663.379 133 122 118
-219 105 446.047 30 114 96
-330 80 563.383 73 159 135
-582 -363 446.11 19 93 87
-517 -89 786.993 98 178 155
-955 -20 703.074 55 90 76
-271 -124 782.386 43 118 110
-732 -28 459.686 26 45 36
-593 100 613.218 57 148 125
-920 -163 706.103 9 22 14
-1163 -23 609.243 24 40 29
-634 -337 784.742 13 104 89
-740 -35 585.798 34 55 46
-578 249 509.998 79 182 145
-519 -338 488.566 41 124 122
-1321 105 597.536 127 114 116
-247 -296 638.829 36 122 112
-480 -146 581.894 70 143 127
-750 -274 703.199 47 94 92
-268 133 669.911 108 217 191
-572 38 544.974 52 141 115
-835 31 786.621 44 64 51
-272 90 537.681 46 138 119
-647 -202 631.545 29 60 63
-1061 44 655.507 94 116 104
-308 -67 455.584 87 166 147
-664 23 726.717 80 162 139
-967 118 624.005 38 46 36
-860 -109 689.138 46 86 74
-831 126 468.09 78 107 98
-570 -322 561.939 33 114 122
-1613 205 484.094 108 94 88
-599 78 552.167 80 171 146
-299 -96 502.028 48 114 95
-841 -284 646.339 66 108 101
-479 -100 875.842 12 102 79
-740 -108 761.572 45 63 56
-974 40 501.068 32 41 31
-542 93 768.578 61 145 120
-646 -229 573.02 33 106 114
-963 46 876.117 44 52 42
-963 227 532.716 50 73 59
-752 -35 459.463 55 71 60
-800 177 639.987 149 173 163
-542 305 675.191 95 140 113
-1190 -133 579.69 48 89 74
-961 -98 575.922 46 64 57
-1196 -169 500.995 51 78 68
-1136 -51 599.318 40 49 39
-877 -80 460.602 50 78 65
-237 -185 456.328 63 138 130
-800 -163 840.452 92 136 123
-673 59 514.293 66 131 110
-578 -219 603.24 48 82 118
-659 151 667.799 67 124 103
-270 -275 715.919 18 101 102
-1182 160 751.466 53 77 65
-1046 -137 598.727 22 46 38
-1182 -16 487.347 29 51 39
-1512 180 837.847 152 135 132
-795 -255 557.387 41 81 86
-518 -99 524.167 78 157 136
-1166 -155 854.063 46 70 60
-320 90 628.562 60 143 128
-606 243 632.386 88 185 158
-972 -98 848.62 66 93 84
-459 -134 756.98 104 180 162
-837 294 706.215 240 177 203
-778 -176 448.317 46 101 82
-674 44 494.19 115 156 148
-507 -222 555.311 24 112 126
-1092 -39 505.62 41 53 47
-597 161 762.449 61 137 113
-1477 281 501.101 79 66 64
-621 1 551.589 50 129 102
-1106 98 733.349 83 127 114
-626 -331 541.344 57 142 138
-1311 104 764.559 185 178 181
-833 -256 493.853 30 60 49
-1027 30 813.195 55 78 64
-1552 233 865.039 118 98 97
-315 -58 476.075 95 174 155
-410 -390 550.799 5 62 63
-276 -172 708.206 49 130 138
-1404 264 479.802 76 59 62
-983 114 681.59 51 62 52
-834 278 494.365 231 186 195
-823 -272 787.088 33 75 64
-726 -63 807.329 23 43 31
-1298 142 568.511 176 168 168
-917 119 607.912 67 131 112
-327 -141 530.478 51 123 131
-666 67 481.494 66 125 104
-578 125 618.915 32 119 93
-296 -12 500.903 101 178 157
-841 -29 546.766 35 43 36
-255 -94 539.853 65 124 109
-531 299 629.069 85 135 105
-207 -83 562.964 89 158 143
-1397 -1 694.612 47 39 39
-541 206 504.973 83 132 118
-972 138 564.573 53 71 58
-974 -113 633.636 46 61 53
-672 100 514.994 139 131 124
-418 126 699.255 64 142 125
-306 174 555.229 49 126 99
-329 196 710.754 0 94 57
-370 11 462.522 82 162 139
-406 147 600.77 13 109 85
-807 -308 701.427 74 115 118
-227 -96 573.236 82 155 139
-1267 284 464.509 173 168 167
-637 -324 746.726 38 128 123
-809 304 448.478 251 183 194
-294 -116 503.043 19 93 89
-1274 276 632.895 111 99 97
-1127 -3 713.696 68 87 78
-825 -218 866.388 16 32 25
-946 66 508.607 55 70 62
-708 -77 624.1 23 49 36
-268 -296 469.493 4 82 89
-860 277 467.228 255 201 219
-551 66 654.662 30 125 98
-1182 -27 467.074 43 62 53
-584 -283 634.885 26 116 123
-497 21 558.969 72 163 137
-1531 214 543.9 131 116 113
-578 -377 582.411 38 124 114
-323 24 625.973 79 171 152
-1514 234 652.613 129 114 112
-886 40 786.556 46 63 52
-223 -77 505.285 57 132 116
-593 239 640.943 79 186 153
-1293 385 630.731 75 54 52
-1208 -158 518.191 75 108 101
-1247 12 740.012 162 161 157
-988 44 462.226 82 97 89
-604 -72 530.73 78 170 141
-897 -117 624.32 20 45 35
-313 24 698.226 41 128 108
-395 137 467.283 65 160 140
-353 103 548.671 64 143 134
-213 -39 503.573 75 157 138
-641 -374 700.667 0 94 80
-656 60 459.97 53 126 104
-750 -16 619.163 22 41 32
-527 -239 777.576 57 85 119
-494 182 565.482 69 161 132
-1062 -246 540.115 63 119 106
-997 114 445.771 52 66 55
-345 -146 514.341 23 95 102
-804 -74 720.09 50 85 71
-758 -253 856.257 77 125 129
-617 -374 607.989 18 103 99
-294 19 464.993 48 129 110
-629 -59 833.541 87 165 141
-809 -284 828.105 62 106 107
-1116 5 449.704 40 58 51
-1043 -40 558.499 59 72 64
-284 -22 509.83 75 154 135
-631 -379 677.114 8 99 90
-317 62 537.459 70 152 134
-1335 58 784.015 136 121 119
-1424 155 493.225 131 116 114
-328 70 606.243 68 154 136
-462 -120 542.141 101 175 157
-508 -52 473.12 98 171 149
-790 -1 706.25 40 51 41
-1524 179 749.149 133 120 118
-330 90 472.737 58 141 126
-217 -95 785.482 48 114 102
-1368 313 662.261 41 27 33
-321 -302 464.457 53 146 145
-329 60 803.812 70 153 131
-619 -40 587.792 74 152 128
-792 -178 685.341 44 97 83
-986 79 525.257 44 55 47
-1336 22 804.957 149 139 132
-869 287 648.473 254 195 216
-1225 122 450.306 137 165 165
-295 -23 648.196 76 158 139
-558 308 628.189 86 133 107
-185 110 861.48 72 152 135
-558 -407 729.637 30 125 104
-1358 313 523.636 132 128 147
-653 23 609.001 44 116 93
-1630 262 524.107 64 50 51
-615 113 504.775 32 101 74
-1091 15 608.816 101 114 106
-1144 -179 543.146 44 62 55
-405 106 450.818 89 170 151
-325 -221 859.636 38 122 134
-221 -33 568.262 84 165 146
-392 -31 605.678 108 187 168
-515 -110 676.157 97 179 156
-309 55 453.356 90 172 153
-510 -79 542.102 94 176 153
-246 -263 868.968 56 140 128
-587 -347 737.293 6 90 86
-739 -73 464.908 21 36 28
-507 163 597.587 34 191 154
-582 -151 459.533 32 47 126
-929 -242 469.276 21 45 35
-955 -233 496.769 30 56 43
-706 182 483.257 248 203 200
-814 -73 824.091 13 32 23
-388 -128 640.957 8 57 49
-254 -210 739.032 70 158 145
-250 -139 711.42 52 124 111
-506 152 783.943 44 91 69
-581 239 557.686 75 210 170
-609 -395 529.065 21 120 110
-619 74 775.132 84 162 138
-920 -92 495.64 21 36 28
-544 356 482.425 115 145 126
-1134 -15 821.087 29 40 32
-273 -198 715.452 74 160 150
-740 -271 723.369 76 119 134
-565 -149 459.457 42 86 87
-892 307 686.773 161 149 169
-619 -28 872.879 57 140 115
-493 -52 689.197 100 172 149
-208 -50 552.404 79 158 137
-889 -233 664.081 72 115 100
-563 165 619.782 44 119 91
-482 -307 478.465 21 104 105
-433 357 489.302 98 165 126
-193 123 461.806 59 141 119
-1307 127 584.318 136 124 120
-327 7 581.526 103 182 161
-365 205 833.607 38 142 111
-378 27 720.488 68 143 121
-593 -73 795.014 88 178 149
-741 -8 445.41 56 81 67
-396 -388 656.837 27 135 152
-621 -9 511.186 44 125 100
-1438 286 515.676 78 67 63
-1177 -150 672.492 55 82 72
-503 -38 662.111 69 153 128
-1284 194 647.57 139 122 119
-231 97 469.289 72 161 142
-291 -33 454.978 109 181 158
-273 -70 451.902 71 153 131
-1516 281 618.28 65 57 57
-216 -135 760.442 68 145 131
-242 -173 497.086 45 123 112
-1268 294 460.205 189 181 181
-507 -11 842.88 59 142 117
-1045 22 870.979 53 74 65
-377 115 501.997 69 156 142
-336 208 740.153 50 147 120
-355 27 553.749 67 152 130
-1618 233 706.2 63 51 49
-226 -242 645.076 78 147 137
